# .PCD v0.7 - Point Cloud Data file format
VERSION 0.7
FIELDS x y z rgba
SIZE 4 4 4 4
TYPE F F F U
COUNT 1 1 1 1
WIDTH 1195
HEIGHT 1
VIEWPOINT 0 0 0 1 0 0 0
POINTS 1195
DATA ascii
129.485 372.38 -393.43997 4286806898
130.645 372.48999 -393.71667 4286937711
131.42332 372.39999 -393.90665 4287004533
127.92 373.22 -393.01001 4287199084
128.52 373.51669 -393.10669 4286675051
129.472 373.44 -393.32999 4286741360
130.36499 373.64499 -393.52502 4287134831
131.42 373.45248 -393.79254 4287134575
132.245 373.78 -393.94501 4286872429
128.64667 374.37668 -393.05334 4286806126
129.55 374.52502 -393.24249 4286938225
130.5325 374.49249 -393.47003 4286740592
131.55333 374.41333 -393.70999 4287003504
132.36 374.47 -393.89502 4287003760
133.00999 374.97 -393.98999 4286676082
128.92 375.26001 -393.01001 4286544753
129.685 375.69 -393.14502 4287529328
130.47 375.51999 -393.34 4287530363
131.56 375.57001 -393.59 4287464314
132.38 375.285 -393.81 4287398270
133.09 375.89001 -393.94 4287990913
129.64499 376.54999 -393.07001 4288055930
130.45001 376.215 -393.27502 4288251769
131.405 376.67252 -393.495 4287464823
132.52333 376.35336 -393.78333 4287794053
133.21001 376.91 -393.95999 4287923571
129.71001 377.79999 -393.07001 4288055679
130.495 377.51001 -393.28 4288252031
131.53334 377.60999 -393.56668 4287793530
132.58333 377.43997 -393.84668 4287727484
129.59999 378.60336 -393.10666 4287925121
130.552 378.44 -393.37396 4287858811
131.33 378.47 -393.62332 4287791989
132.35333 378.32666 -393.92996 4287923316
129.50143 379.41861 -393.17572 4287990656
130.57251 379.38248 -393.55252 4288055419
131.36 379.14001 -393.78 4287924090
128.61 380.48666 -393.12 4287858041
129.522 380.414 -393.44601 4288055674
130.60335 380.35831 -393.87332 4287793017
127.60001 381.44666 -393.12332 4287791472
128.50499 381.5325 -393.54999 4287660143
129.24001 381.16 -393.67001 4287792509
126.28666 382.80002 -393.23331 4286675560
127.478 382.48599 -393.63998 4287265129
128.29999 382.27502 -393.89001 4287199593
125.83 383.25 -393.25 4286937701
126.68 383.39139 -393.71002 4286936418
127.14 383.45999 -394 4286541918
-89.222504 -120.2 -392.80002 4282728766
-88.93 -119.75 -392.75 4283978318
-63.296364 -77.32 -392.35999 4282662713
-63.251667 -76.454994 -392.86667 4280624421
-63.131996 -75.612 -392.81601 4280689951
-62.959999 -75.18 -392.92999 4280756254
-63.214283 -74.827148 -392.76999 4280559900
-63 -74.75 -392.89001 4280887576
-62.830002 -71.316666 -392.83667 4282136626
71.900002 -71.309998 -392.88 4280689180
72.574997 -71.354996 -392.6925 4280427035
73.445557 -71.566673 -392.67557 4280557587
74.359993 -71.667137 -392.82285 4280623894
75.564285 -71.377144 -392.77426 4280821269
76.444 -71.302002 -392.87598 4280886825
-62.736 -70.682007 -392.80402 4282661942
70.5075 -70.488335 -392.7908 4279967511
71.428001 -70.708 -392.56601 4280033303
72.514999 -70.627502 -392.1525 4280623642
73.341995 -70.823997 -392.172 4280295440
74.606667 -70.681664 -392.18167 4280558108
75.605995 -70.485992 -392.27463 4280558107
76.410835 -70.547501 -392.54419 4280427807
77.440002 -70.470001 -392.82999 4280755993
78.5 -70.089996 -392.815 4280887836
79.910004 -70.169998 -392.98999 4280427282
81.239998 -70.050003 -392.92001 4281937960
82 -70.059998 -392.95001 4281607971
84.75 -70.129997 -392.97 4282136364
-62.835712 -69.564285 -392.83713 4282465589
68.949997 -69.07 -392.88 4280293645
69.610001 -69.43222 -392.65109 4279704339
70.356003 -69.564003 -392.332 4279834644
71.110001 -69.889999 -392.13 4279705108
76.444992 -69.682999 -392.15302 4280755742
77.494003 -69.602005 -392.29199 4280690715
78.461426 -69.428566 -392.35141 4280624925
79.323334 -69.306671 -392.45834 4280821785
80.620003 -69.585007 -392.73749 4281083936
81.632004 -69.449997 -392.67798 4281543967
82.409996 -69.540001 -392.75287 4282398244
83.464996 -69.650002 -392.81 4281544222
84.526001 -69.526001 -392.742 4281348134
85.384995 -69.470001 -392.72998 4281479462
86.532494 -69.452499 -392.76999 4281807140
87.43 -69.239998 -392.73999 4282989876
88.404999 -69.184998 -392.83502 4283977014
-63.180836 -68.348335 -392.33667 4280888090
-62.888332 -68.451668 -392.82333 4282401084
67.847496 -68.099998 -392.90747 4279769367
68.569084 -68.315453 -392.59183 4279702800
69.391998 -68.654495 -392.27002 4279572759
79.498001 -68.800003 -392.19 4280953371
80.407501 -68.667496 -392.3075 4281150243
81.358002 -68.469994 -392.26398 4281150759
82.469994 -68.462502 -392.285 4281807914
83.487503 -68.529999 -392.35498 4282793012
84.587502 -68.547501 -392.36249 4281346588
85.370003 -68.408569 -392.29858 4281413154
86.709999 -68.456665 -392.29001 4282266922
87.537498 -68.4925 -392.36499 4283056172
88.460007 -68.282501 -392.3725 4283911994
89.502495 -68.464996 -392.70001 4285356866
90.550003 -68.129997 -392.82001 4284961838
-63.144997 -67.845001 -392.25 4280757535
-62.947502 -67.513748 -392.70874 4282465850
67.489487 -67.442505 -392.67801 4279639064
68.435371 -67.56424 -392.29578 4279375118
69.183342 -67.806664 -392.04996 4279703055
82.760002 -67.879997 -392.04999 4281807904
85.5 -67.849998 -392.04999 4281611561
86.404999 -67.959999 -392.06 4281806625
87.470001 -67.849998 -392.01001 4281675545
88.980003 -67.510002 -392.06 4285026358
89.703331 -67.556671 -392.26669 4283910184
90.339996 -67.455002 -392.39001 4284501816
91.433342 -67.670006 -392.83334 4283776303
92.415001 -67.129997 -392.79999 4283252526
93.25 -67.099998 -393 4283450138
-62.871872 -66.514999 -392.67563 4282203701
66.838577 -66.488571 -392.67285 4279506967
67.461113 -66.592781 -392.40555 4279244564
68.315002 -66.783752 -392.15002 4279375119
90.709999 -66.949997 -392.23001 4286079045
91.654999 -66.555 -392.32501 4285027386
92.547501 -66.482498 -392.52753 4284960827
93.57 -66.487503 -392.83249 4283450671
-62.563335 -65.541115 -392.73666 4282333231
66.553329 -65.570473 -392.58569 4279965714
67.226662 -65.60833 -392.15671 4279703058
92.563332 -65.556664 -392.15665 4283976240
93.637497 -65.612503 -392.51001 4283974963
94.605003 -65.441666 -392.72836 4285422143
95.379997 -65.229996 -392.845 4285026865
-62.150005 -64.471107 -392.81888 4281477927
66.523468 -64.519127 -392.44522 4279964430
93.546669 -64.676666 -392.11002 4283580719
94.723328 -64.48333 -392.39999 4284634695
95.456009 -64.573997 -392.612 4285093180
96.50666 -64.316666 -392.79333 4284830009
-62.252502 -63.822498 -392.88251 4280887079
-59.217499 -63.450001 -392.9725 4280558616
-58.578892 -63.453892 -392.92227 4282596916
-57.915001 -63.114998 -392.89999 4283254072
66.297638 -63.482941 -392.53464 4279374863
94.739998 -63.830002 -392.17999 4285224494
95.56144 -63.641426 -392.33282 4285555014
96.349998 -63.25 -392.39001 4286080327
97.440002 -63.3825 -392.74249 4284370227
98.379997 -63.049999 -392.98999 4287001689
-62.636669 -62.190002 -392.82333 4282530354
-58.498894 -62.741108 -392.95447 4282727727
-57.688 -62.417004 -392.939 4283386169
66.174164 -62.519161 -392.35083 4279440397
95.93 -62.66 -392.07001 4284899669
96.753334 -62.459995 -392.21667 4285552450
97.386658 -62.583332 -392.44003 4285158451
98.419998 -62.360001 -392.72 4287330400
99.080002 -62.119999 -392.92999 4287133013
-62.759232 -61.619228 -392.8385 4282596401
-58.095001 -61.32 -392.98999 4283057720
-57.747139 -61.629997 -392.98999 4283583296
66.155998 -61.519001 -392.45502 4279374605
97.746666 -61.613331 -392.18668 4286080337
98.402 -61.632 -392.41998 4286738256
99.360001 -61.459999 -392.76999 4285683764
-62.728462 -60.473076 -392.82617 4282531122
-61.443333 -60.123333 -392.96329 4281085222
-60.398998 -60.237 -392.82697 4281083934
-59.37273 -60.353638 -392.71091 4281018140
-58.409443 -60.403885 -392.64551 4282465845
-57.623573 -60.424282 -392.7471 4283320899
66.104286 -60.385719 -392.51291 4279308814
97.940002 -61 -392.01001 4286410332
98.540001 -60.549999 -392.03 4286082134
99.363335 -60.570004 -392.38333 4285292616
100.38 -60.230003 -392.75 4287265127
-62.151001 -59.872997 -392.53998 4282136883
-61.584385 -59.479683 -392.5603 4281675816
-60.513744 -59.541874 -392.55814 4281216037
-59.35083 -59.560837 -392.38416 4281346334
-58.493454 -59.519997 -392.24799 4282465585
-57.6348 -59.601601 -392.48642 4283320127
65.886002 -59.582001 -392.75598 4279243277
66.019997 -59.860001 -392.32999 4279308814
99.889999 -59.720001 -392.23999 4286475603
100.49143 -59.565716 -392.49997 4288054898
101.1 -59.345001 -392.79999 4290553242
-61.414501 -58.458504 -392.16003 4281742637
-60.585453 -58.472729 -392.24817 4281282601
-59.496925 -58.511536 -392.16309 4280888356
-58.383335 -58.486664 -392.06332 4282531122
-57.613216 -58.438568 -392.4429 4282794808
65.712227 -58.562222 -392.56219 4279177228
100.745 -58.440002 -392.17499 4288843124
101.355 -58.535004 -392.69833 4290420357
-62.159996 -57.627506 -392.13876 4282071599
-61.4175 -57.564495 -392.31744 4281545514
-60.615002 -57.559288 -392.21857 4281348132
-59.608334 -57.515827 -392.04587 4280953381
-57.240967 -57.725807 -392.46744 4282729014
-56.674374 -57.476871 -392.82681 4283189312
-55.376926 -57.455772 -392.80154 4284044621
-54.502304 -57.540779 -392.67111 4283716173
-53.494831 -57.517582 -392.72729 4282728761
65.565552 -57.43 -392.49554 4279244054
101.44 -57.426247 -392.28879 4289499770
102.08 -57.419998 -392.94 4287988843
-62.173336 -56.679996 -392.13998 4282332979
-61.656109 -56.583885 -392.36499 4281741866
-60.429996 -56.515835 -392.32748 4281413161
-59.586315 -56.420532 -392.21786 4281149985
-58.517502 -56.4375 -392.10754 4281808423
-57.389614 -56.409615 -392.25113 4282860346
-56.752998 -56.592499 -392.76849 4283058241
-55.309998 -56.945 -392.92999 4284174921
-54.542999 -56.883003 -392.83701 4283979084
-53.875 -56.900002 -392.78 4282532414
65.326668 -56.549175 -392.60172 4279570708
101.80667 -56.740002 -392.14331 4288645229
102.29333 -56.357777 -392.47107 4288380772
-61.25 -55.875 -392.54498 4281282598
-60.48238 -55.503338 -392.35239 4281151013
-59.474995 -55.614441 -392.29166 4281149985
-58.370003 -55.452103 -392.19107 4282267438
-57.495785 -55.456844 -392.34473 4283254073
-56.699997 -55.417057 -392.78644 4283452992
-55.5 -55.576672 -392.8833 4283386693
64.970001 -55.009998 -392.62 4279769871
65.205002 -55.68166 -392.37 4279243026
102.509 -55.723999 -392.30597 4287987295
103.145 -55.199997 -392.79498 4287591262
-59.245003 -54.504997 -392.08499 4281148701
-58.374619 -54.773079 -392.23389 4282005290
-57.565239 -54.639534 -392.25284 4283255102
-56.602505 -54.574993 -392.37997 4284109899
64.809998 -54.513332 -392.85999 4280029966
65.050003 -54.549999 -392.19 4279768079
103.35 -54.666668 -392.67334 4286080585
-59.349998 -53.009998 -392.01001 4281677615
64.695549 -53.450001 -392.5022 4279309074
103.665 -53.455002 -392.26501 4285683519
104.07 -53.480003 -392.785 4286803282
-59.49667 -52.75 -392.09668 4282135588
-58.5 -52.75 -392.01999 4282004770
64.408569 -52.49572 -392.45572 4279374606
104.39124 -52.434998 -392.51874 4287394648
63.900002 -51.189999 -392.98001 4280161298
64.161674 -51.646667 -392.51001 4279638032
104.722 -51.48 -392.26599 4285225020
105.13499 -51.379997 -392.745 4286144320
63.919998 -50.360001 -392.625 4279572752
64.084999 -50.645 -392.17999 4279572497
105.326 -50.572002 -392.42999 4286211653
-56.813889 -49.64333 -392.07114 4283517766
63.855003 -49.440002 -392.48001 4279505937
64.010002 -50 -392.16 4279178774
105.83 -49.650002 -392.47 4286342218
106.19 -49.415001 -392.86499 4286735426
-59.290665 -48.584 -392.05405 4283386180
-58.970001 -48.59 -392.01001 4283978318
63.735001 -48.462498 -392.38748 4280294419
106.38168 -48.581669 -392.52832 4286668863
63.470001 -47.338001 -392.54199 4279573015
106.7 -47.766663 -392.33334 4287655759
107.225 -47.195 -392.66498 4286931523
63.32 -46.330002 -392.23499 4279506965
107.49 -46.429996 -392.4957 4286209339
62.959999 -45.220001 -392.72 4279767565
63.150005 -45.549999 -392.37 4279308815
107.79 -45.696667 -392.4733 4286340408
108.08 -45.450001 -392.85999 4286603574
62.843334 -44.369999 -392.79666 4279243021
63.110001 -44.593334 -392.27335 4279374356
108.285 -44.535 -392.565 4286143555
62.760002 -43.420002 -392.47748 4279178254
108.625 -43.645 -392.57501 4286208829
62.48 -42.440002 -392.36337 4279309849
108.9 -42.880001 -392.53 4286864953
109.185 -42.245003 -392.70001 4285747755
61.970001 -41.040001 -392.76001 4279639067
62.217499 -41.519997 -392.33997 4279505936
109.35273 -41.608181 -392.58362 4285420850
61.949997 -40.279999 -392.51501 4279375631
62.114998 -40.610001 -392.155 4279244056
109.75333 -40.610001 -392.71335 4284631327
61.826672 -39.543331 -392.47 4279637266
109.95 -39.860001 -392.45999 4283645988
110.28 -39.310001 -392.67001 4285290817
61.568005 -38.327995 -392.40601 4279309073
110.64999 -38.433331 -392.59335 4284894763
61.297501 -37.452499 -392.72751 4279111951
110.83334 -37.723331 -392.32333 4283119636
111.1175 -37.447498 -392.65747 4283118872
61.18 -36.395 -392.52499 4279244049
111.505 -36.357502 -392.51752 4285684539
60.793331 -35.403332 -392.70667 4279440142
61.07 -35.690002 -392.23499 4279571469
111.78999 -35.4575 -392.25751 4287261769
112.085 -35.360001 -392.83002 4286998598
60.752003 -34.602001 -392.42401 4279505425
111.92 -34.93 -392.01999 4287393369
112.26 -34.630001 -392.45999 4285751092
60.514 -33.447998 -392.552 4279637778
112.615 -33.742496 -392.41501 4284303401
60.293335 -32.663334 -392.67334 4280031764
113.22501 -32.415001 -392.52002 4286472256
60.136669 -31.550001 -392.34668 4279703317
113.82 -31.346664 -392.67334 4286801220
59.873333 -30.453333 -392.69669 4279505421
60.09 -30.719999 -392.09 4279572499
114.26001 -30.513334 -392.64999 4287459664
59.795002 -29.440001 -392.4675 4279571727
114.77 -29.546667 -392.78 4287657044
59.474995 -28.360001 -392.54834 4279571471
114.92251 -28.592499 -392.22498 4289038182
115.16 -28.293333 -392.61331 4287982906
59.221996 -27.503998 -392.44803 4279702544
115.422 -27.362 -392.57001 4285945398
58.899998 -26.452499 -392.755 4279243537
59.049999 -26.790001 -392.47 4279047187
115.55601 -26.588001 -392.616 4286538556
58.652222 -25.49889 -392.47223 4279767567
115.61001 -25.526001 -392.526 4286998336
58.338333 -24.401667 -392.54333 4279572239
115.66 -24.57 -392.46997 4286736962
58.144283 -23.407141 -392.53 4279309327
115.77 -23.556665 -392.42667 4287789654
57.889999 -22.279999 -392.54001 4279374608
58.059998 -22.735001 -392.17499 4279832844
115.92 -22.43 -392.25 4288711273
116.05 -22.5 -392.85001 4288842088
57.765003 -21.471251 -392.50125 4279505168
116.105 -21.74 -392.39499 4288381277
57.66 -20.4925 -392.36002 4279308303
116.36501 -20.555 -392.47 4285553217
57.463333 -19.360001 -392.42667 4279374864
116.45 -19.440001 -392.17999 4285552452
57.231426 -18.458572 -392.38858 4279965202
116.60667 -18.300001 -392.43002 4285290043
56.923328 -17.470001 -392.71335 4279440145
57.040001 -17.83 -392.47 4279833106
116.7 -17.494999 -392.565 4284041771
56.803333 -16.543333 -392.59335 4279177485
116.74 -16.540001 -392.48499 4285684795
56.764282 -15.581429 -392.45718 4279439629
116.735 -15.67 -392.255 4287265370
56.719997 -14.5725 -392.35999 4279309072
116.84667 -14.610001 -392.59 4287659617
56.677498 -13.4825 -392.32001 4279309068
116.88 -13.603333 -392.50333 4286542422
56.619999 -12.563333 -392.43997 4279176975
116.87 -12.6 -392.35999 4286011722
56.477501 -11.505 -392.4025 4279243279
116.905 -11.35 -392.51501 4286212432
56.267273 -10.315454 -392.62814 4279308303
116.91499 -10.344999 -392.62 4287461980
56.280708 -9.4746428 -392.49283 4279178004
116.855 -9.6049995 -392.46002 4287461221
56.451252 -8.5281239 -392.52249 4279374863
116.87 -8.5550003 -392.495 4287066969
117.01 -8.4399996 -392.94 4287066714
56.263214 -7.4589281 -392.48431 4279243534
116.88 -7.3600006 -392.53998 4286541400
56.328335 -6.5774999 -392.63663 4279505933
116.85667 -6.501667 -392.45667 4286475865
56.348 -5.4549999 -392.45001 4279505935
116.90333 -5.4666667 -392.74332 4286673755
56.256668 -4.4500003 -392.495 4279309071
116.77334 -4.4266667 -392.56332 4286541395
56.273998 -3.5260003 -392.504 4279308816
116.675 -3.5125 -392.41998 4286475088
56.285004 -2.4483333 -392.64832 4281807665
116.6775 -2.5374999 -392.55249 4285488705
56.349998 -1.75 -392.505 4279571988
116.555 -1.6600001 -392.36499 4284172853
56.509998 -0.25 -392.23999 4279899152
116.58501 -0.60499996 -392.685 4284372286
56.65667 0.53999996 -392.45667 4279506192
116.385 0.48749998 -392.36249 4284763952
56.822502 1.345 -392.33002 4279571986
116.43334 1.5099999 -392.69666 4285094456
116.19666 2.49 -392.26334 4284171824
116.3 3.4833333 -392.67334 4284304173
116.21001 4.6139998 -392.34 4283120671
116.37 5.4812498 -392.55002 4283842602
116.67 6.5149999 -392.6275 4283973421
116.9 7.23 -392.63501 4283382305
117.04 7.7399998 -392.42001 4282725157
117.18 8.5200005 -392.51999 4282789659
117.30667 9.4233332 -392.49332 4282526496
117.41333 10.596667 -392.64331 4281804571
117.50333 11.650001 -392.38333 4281674011
117.6875 12.509999 -392.4375 4281410838
117.83 13.5675 -392.42249 4281147930
117.85 14.65 -392.39001 4281148701
117.862 15.544001 -392.466 4281147671
117.876 16.422001 -392.36398 4281016855
117.96667 17.496668 -392.45334 4280361501
118.01 17.65 -392.76999 4280296214
117.97 18.49 -392.23001 4280294433
118.065 18.509998 -392.78998 4280295965
118.07667 19.48 -392.64001 4280623902
118.19 20.573334 -392.78 4280623125
118.27666 21.613333 -392.56998 4280688411
118.38222 22.678886 -392.5733 4280689434
118.52833 23.535002 -392.63 4280624153
118.68571 24.66857 -392.56 4280557588
118.73734 25.541998 -392.31064 4280622098
118.86 26.084999 -392.14001 4280817936
119.06333 26.590002 -392.52335 4280228373
119.145 27.571669 -392.46167 4280162582
119.27251 28.57 -392.46249 4280359440
119.45 29.586664 -392.74667 4279901725
119.54333 30.6 -392.49332 4280228634
119.69999 31.553331 -392.47665 4280227345
119.81667 32.580002 -392.70999 4279964432
119.78333 33.463333 -392.53333 4279965973
119.81 34.510002 -392.565 4280098318
119.91715 35.412853 -392.54144 4280031764
120 35.990002 -392.29001 4280426012
120.06 36.404999 -392.58002 4280295706
120.1625 37.445 -392.69501 4280950804
120.2025 38.392502 -392.5625 4280294166
120.21 39.445 -392.54501 4280687380
120.2475 40.535 -392.38251 4280491542
120.36501 41.380001 -392.46002 4280490775
120.52666 42.346664 -392.46997 4280622877
120.73 43.60667 -392.50333 4280557335
120.91499 44.715 -392.42499 4279573791
121.115 45.669998 -392.655 4280098326
121.27 46.605 -392.45001 4280951321
121.4375 47.447498 -392.51749 4281081878
121.55 48.34 -392.40002 4281147921
121.71599 49.564003 -392.55402 4281082906
121.8 50.523335 -392.41333 4281476634
121.91251 51.610001 -392.51001 4281805854
121.96 52.557503 -392.66498 4282856997
121.97666 53.50333 -392.32666 4282004254
122.06 54.450001 -392.67999 4286210894
122.1725 55.43 -392.55499 4286407760
122.3175 56.369999 -392.58002 4287790433
122.47749 57.517502 -392.46503 4287855962
122.56 58.473331 -392.29333 4286540869
122.7 59.34 -392.59 4286537542
122.76749 60.493752 -392.35248 4288053090
122.85667 61.363331 -392.39331 4288053608
123 61.700001 -392.98001 4288380764
122.99 62.369999 -392.54999 4288185441
123.1 63.310001 -392.49667 4287856223
123.315 64.724998 -392.63 4288513390
123.39999 65.510002 -392.41998 4288645229
123.55666 66.433334 -392.46335 4288513641
123.73667 67.690002 -392.56332 4288513639
123.8475 68.587494 -392.54498 4288185449
123.95 69.584999 -392.44501 4285948752
124.02 69.760002 -392.70999 4286143560
124.08 70.514 -392.51401 4285159490
124.22 71.544998 -392.47501 4288051286
124.315 72.324997 -392.44751 4287528279
124.45 73.383331 -392.51334 4287459919
124.535 74.480003 -392.36499 4288513389
124.6725 75.357498 -392.48749 4288775779
124.795 76.479996 -392.47998 4288579949
124.93001 77.470001 -392.61249 4288381539
125.08 78.634995 -392.64499 4286474830
125.20573 79.639999 -392.43143 4285224252
125.34 80.552505 -392.435 4285091385
125.46999 81.486664 -392.38 4287788120
125.615 82.379997 -392.57999 4288907108
125.77499 83.339996 -392.67499 4288184415
125.89 84.360001 -392.375 4284568122
126.04 84.739998 -392.95001 4286740067
125.985 85.464996 -392.19 4284825395
126.1 85.445 -392.77502 4286276685
126.15 86.456001 -392.57999 4287065162
126.36 87.684998 -392.685 4288184158
126.44 88.517998 -392.51398 4287328850
126.54399 89.613998 -392.534 4285882171
126.67 90.662003 -392.49399 4287591767
126.81499 91.46875 -392.62872 4288774750
126.955 92.474998 -392.315 4287263830
127.06 92.940002 -392.67999 4287461219
127.105 93.5 -392.51001 4286211402
127.19 94.323334 -392.52332 4287854682
127.37 95.676666 -392.47 4289170799
127.515 96.580002 -392.58252 4289171307
127.7 97.839996 -392.67001 4289040236
127.795 98.675003 -392.23999 4288777322
20.74 99.75 -392.79001 4283518785
21.014999 99.849998 -392.91501 4283519309
127.91 99.050003 -392.54999 4288580978
128.02 99.660004 -392.54001 4289105262
20.632 100.524 -392.63202 4284243285
21.214285 100.64999 -392.89996 4284243801
128.12 100.3875 -392.505 4287988068
20.56889 101.46333 -392.44888 4284440409
21.373848 101.38309 -392.80927 4284440665
128.26801 101.448 -392.41 4288514150
20.5 102.25 -392.41 4284768861
21.586668 102.25 -392.71335 4284440924
22.331667 102.48 -392.81998 4284440667
128.42332 102.56333 -392.43335 4289368942
22.511665 103.475 -392.68167 4284375644
128.545 103.57 -392.45502 4289829233
128.64 104.34 -392.31 4289041523
128.754 105.468 -392.418 4286146885
128.87666 106.50333 -392.64331 4286343501
128.925 107.37 -392.23499 4286867533
129.01001 108.465 -392.40002 4285295177
129.05399 109.43801 -392.55801 4287593309
129.09666 110.34666 -392.45999 4287327827
129.09401 111.49199 -392.466 4285881660
129.03999 112.37 -392.63 4288118622
129.015 113.61 -392.60001 4289236073
128.985 114.7 -392.435 4286605634
129 114.05 -392.26999 4288775521
128.94749 115.4925 -392.57248 4285685047
128.905 116.5 -392.41498 4285948487
128.92999 117.30666 -392.40665 4288709472
128.98 118.32333 -392.49667 4289236063
128.98 119 -392.20999 4289170540
129.015 119.5 -392.48499 4289564005
129.112 120.53001 -392.586 4289630313
129.16 121.38 -392.60001 4289499246
61.514999 122.53 -392.16 4280098069
62.368004 122.56999 -392.17499 4280426002
63.370003 122.634 -392.14801 4280886043
64.617996 122.66 -392.06201 4280754454
65.290001 122.78 -392.01999 4280688665
129.19501 122.335 -392.685 4288907361
62.538002 123.436 -392.41998 4281084959
63.41571 123.44286 -392.36142 4280821279
64.5 123.50999 -392.25751 4280360210
65.353333 123.47 -392.06998 4280229913
129.31 123.54 -392.40332 4288117592
61.759998 124.23 -392.92999 4281019422
62.316662 124.41 -392.86166 4281017889
63.395996 124.55801 -392.784 4280361498
64.642502 124.5725 -392.53 4280032276
65.579094 124.59819 -392.25 4280228626
66.51667 124.70166 -392.17502 4280294423
67.430771 124.78155 -392.15619 4280098581
129.39601 124.45799 -392.39401 4287855450
62.939999 125.04 -392.97 4280886310
63.760002 125.07 -392.95001 4280359961
64.590004 125.31799 -392.82397 4280032017
65.504997 125.364 -392.49402 4280097556
66.587273 125.51909 -392.42908 4279834643
67.486664 125.42381 -392.43619 4280032534
68.030006 125.72333 -392.05334 4281017622
129.45332 125.5 -392.75 4287197004
64.860001 126.11 -392.91 4280885016
65.513756 126.46376 -392.71622 4280097298
66.475456 126.40002 -392.52185 4280294677
67.616096 126.45871 -392.36349 4280623640
68 126.17 -392.06 4283121982
129.61334 126.56667 -392.49667 4285354545
65.690002 127.4675 -392.85999 4280229656
66.497498 127.46 -392.64252 4280491542
67.551666 127.44 -392.34167 4280097551
68.084999 127.38 -392.07501 4279968018
129.66501 127.54 -392.565 4283708958
65.940002 128.00999 -392.91 4280689438
66.457497 128.3925 -392.82751 4280557338
67.302002 128.48599 -392.55801 4280294416
68.059998 128.21001 -392.20999 4280491287
129.64499 128.25 -392.51501 4283842078
66.760002 129.32001 -392.92001 4280032527
67.400002 129.64 -392.71335 4279900433
68.32 129.375 -392.22 4280163347
129.59001 129.50334 -392.47836 4285947205
67.537506 130.48248 -392.815 4279966483
68.419998 130.57999 -392.34601 4280097044
129.54889 130.35555 -392.60889 4287592790
68.4925 131.52374 -392.45874 4279900181
69.300003 131.97 -392.01999 4280555796
129.49666 131.45332 -392.30334 4286866754
67.900002 132.28 -392.97 4280622359
68.565002 132.47751 -392.52249 4279900949
69.245003 132.655 -392.14999 4280163611
129.61 132.53499 -392.54001 4287194687
68.540001 133.27333 -392.70667 4280031764
69.389999 133.60001 -392.19 4280097301
129.655 133.48999 -392.5 4287325754
68.684998 134.41501 -392.88 4279965711
69.450005 134.61333 -392.37997 4279900431
70 134.75999 -392.01999 4280886310
129.67 134.47501 -392.49832 4287326016
69.639999 135.55858 -392.46146 4281020453
70.072495 135.49001 -392.11499 4281679417
129.72333 135.77333 -392.54333 4287129413
69.596672 136.472 -392.58469 4280755229
70.019997 136.28 -392.19 4281280800
129.7 136.61501 -392.47998 4286472261
69.575996 137.39699 -392.65002 4280690717
70.050003 137.19 -392.10999 4281018139
129.65666 137.42999 -392.64835 4286404673
69.620003 138.51572 -392.46283 4280558108
129.48599 138.53 -392.39401 4285748285
69.601242 139.56999 -392.38062 4280163864
70.050003 139.84 -392.01999 4280821281
129.44333 139.46001 -392.31332 4285550140
68.966675 140.21001 -392.98331 4280097813
69.516502 140.53149 -392.64703 4284047178
70.359444 140.61778 -392.24115 4283454046
129.50999 140.39667 -392.64334 4285156659
69.764542 141.29272 -392.87909 4285163395
70.545006 141.50708 -392.54837 4280293660
71.050003 141.785 -392.14001 4280030740
129.55333 141.49001 -392.59998 4284696885
70.625298 142.44293 -392.6947 4280161550
71.224663 142.72466 -392.30399 4280820764
73.5 142.83499 -392.245 4280031248
129.42999 142.61499 -392.28998 4284434483
70.895004 143.1425 -392.82751 4280558621
71.51696 143.36218 -392.60132 4281017629
72.345329 143.29199 -392.43668 4280426001
73.412498 143.08749 -392.66498 4279768589
129.412 143.29599 -392.52802 4284499768
129.33286 144.42 -392.49002 4285290053
129.192 145.562 -392.40204 4285024571
129.13751 146.42001 -392.51251 4284365854
128.99001 147.85001 -392.07999 4283578152
129.11833 147.58667 -392.56503 4283643679
129.06923 148.41231 -392.56073 4283708442
129.14813 149.5275 -392.41684 4283511840
129.26556 150.55556 -392.41443 4283709476
129.29668 151.50111 -392.39999 4283578919
129.37999 152.5 -392.52426 4283513382
129.43143 153.60001 -392.48502 4283252016
129.30714 154.45857 -392.44 4283317033
128.93143 155.72144 -392.21286 4282724386
129.12999 155.47571 -392.6543 4283119652
128.88286 156.44714 -392.26999 4282396447
129.10727 156.47908 -392.67728 4282856472
128.98 157.17999 -392.01001 4282725668
129.25334 157.57668 -392.60001 4282331423
129.31889 158.61334 -392.42444 4282330907
129.272 159.40201 -392.61401 4282659363
128.97 160.92 -392.34 4281279266
129.11499 160.52 -392.7717 4282067227
128.935 161.60501 -392.31 4281543464
129.075 161.41 -392.83997 4281739554
128.9225 162.46001 -392.28 4281741347
129.058 162.502 -392.82199 4281936676
128.85429 163.50285 -392.42856 4282594606
129.01999 163.37 -392.91998 4282331169
128.81215 164.52 -392.56497 4282332205
128.79922 165.42154 -392.42084 4281873200
128.72 166.49399 -392.41998 4281477922
128.67999 167.66779 -392.52112 4281279776
128.59201 168.48065 -392.50867 4281149729
128.62616 169.5 -392.38461 4282267954
128.7747 170.60059 -392.60532 4283386959
128.66876 171.3175 -392.53998 4283781704
128.50499 172.60585 -392.48166 4282529838
128.34113 173.46558 -392.50333 4285027655
127.92001 174.59001 -392.10001 4283715390
128.19667 174.59334 -392.58667 4285222712
127.94 175.73 -392.16 4286870877
128.24399 175.68501 -392.68698 4287459929
128.27307 176.41925 -392.60843 4288513901
128.349 177.39001 -392.55798 4288973423
128.53714 178.53142 -392.51859 4287919190
128.7375 179.48499 -392.45251 4287784005
129 179.3 -392.98999 4287259208
128.85599 180.254 -392.23203 4287588934
129.16333 180.57501 -392.59 4287720776
129.45499 181.508 -392.44751 4287785805
129.69221 182.51945 -392.47446 4287653702
129.826 183.45265 -392.43933 4287325771
129.77682 184.47791 -392.34003 4287457355
130.02 184.48668 -392.89999 4287391558
129.79399 185.37399 -392.41998 4287457097
130.08333 185.52667 -392.89664 4287062850
129.81375 186.55376 -392.46375 4286932042
130.03 186.17999 -392.875 4287194437
129.74928 187.41499 -392.44214 4286931782
129.8775 188.355 -392.52127 4286668354
130.015 188.97501 -392.48999 4286733894
130.08167 189.53833 -392.34668 4287326021
130.12666 190.64 -392.52335 4287523146
130.06334 191.43666 -392.28003 4287456835
130.045 192.54749 -392.38998 4287324740
129.96001 193.98 -392.14001 4288376395
130 193.47 -392.54001 4287718724
129.89333 194.55669 -392.52002 4287918418
129.8 195.26999 -392.34003 4287919450
129.685 196.28 -392.41251 4288116058
129.61499 197.30499 -392.47998 4288050002
129.56667 198.33667 -392.35336 4288183904
129.515 199.5775 -392.63751 4287853143
129.3575 200.45374 -392.51251 4287982671
128.82001 201.98 -392.07999 4289628013
129.0925 201.38501 -392.5275 4289302126
128.84999 202.53 -392.66498 4290419331
128.73749 203.49251 -392.54251 4290419579
128.69199 204.50801 -392.57001 4289696117
128.53999 205.61 -392.45004 4288643937
128.51999 206.54199 -392.62997 4289301871
128.48999 207.46498 -392.64252 4289432946
128.485 208.38501 -392.57251 4289894005
128.52667 209.45667 -392.63669 4289236332
128.55 210.36 -392.66 4289235554
128.53 211.58125 -392.35498 4288906605
128.68333 212.51335 -392.68002 4288972647
128.7775 213.60251 -392.54001 4288380762
128.78999 214.5 -392.28665 4289825377
129.02 214.59 -392.78 4287789392
128.935 215.67001 -392.22498 4288841319
129.13 215.435 -392.73001 4288841569
128.99001 216.67 -392.07001 4288972917
129.196 216.35001 -392.59802 4288512613
128.92 217.55499 -392.065 4290551430
129.11 217.3075 -392.41 4291476115
128.864 218.556 -392.23199 4289169513
129.145 218.6425 -392.74249 4288774761
128.86 219.48 -392.20667 4289893504
129.14667 219.72668 -392.69998 4290941561
128.89999 220.39999 -392.26501 4291072659
129.11499 220.45999 -392.66998 4289433976
128.905 221.35001 -392.37 4291472785
129.07999 221.675 -392.78 4291872942
128.75 222.45625 -392.37875 4291276444
129.04999 222.23 -392.89999 4294035373
128.69333 223.50665 -392.50504 4290355344
128.51799 224.40201 -392.46799 4290947234
128.35333 225.55501 -392.58667 4288904810
127.97 226.49001 -392.12 4288905574
128.254 226.302 -392.62601 4288577645
85.207146 227.59572 -392.45001 4280491542
127.83667 227.56 -392.30002 4289367922
128.17 227.13 -392.81 4289567594
85.312859 228.52 -392.42288 4280556312
127.8 228.61499 -392.57501 4289501055
128.02 228.17 -392.89999 4288779408
85.290001 229.25 -392.155 4278519044
127.67599 229.51001 -392.57599 4288971368
127.3725 230.54749 -392.35498 4289499760
127.29667 231.42 -392.54996 4289172086
126.91 232.58 -392.29666 4291011468
127.202 232.56601 -392.78201 4289698151
126.7175 233.39999 -392.39252 4289961604
127.07 233.06 -392.76999 4289110648
125.94 234.75999 -392.07001 4290354818
126.4075 234.465 -392.59003 4289434744
125.76 235.735 -392.27002 4289564786
126.18 235.45999 -392.77502 4288841321
125.755 236.56 -392.5025 4289696628
126.02499 236.80499 -392.88 4288315487
125.488 237.63199 -392.40601 4289104491
124.9 238.82001 -392.10999 4289299818
125.488 238.43399 -392.67798 4288709219
124.82 239.60001 -392.29999 4288905047
125.315 239.4425 -392.82501 4288775016
124.77 240.68333 -392.58499 4290288257
125.06 240.21001 -392.76999 4290417003
124.49599 241.34 -392.504 4287920980
123.86333 242.58667 -392.32999 4287326027
124.25333 242.19334 -392.66666 4286997064
123.43001 243.54199 -392.48199 4287391815
122.65285 244.49142 -392.37857 4288048202
121.69333 245.63 -392.35001 4287260734
122.155 245.2975 -392.5575 4287851327
120.46749 246.6875 -392.29001 4285484588
121.38667 246.35333 -392.75333 4286996277
119.73541 247.5204 -392.46707 4285024296
120.27334 247.13666 -392.64331 4285681703
119.35999 248.51941 -392.5712 4285683776
119.25462 249.47845 -392.6423 4286013768
119.30286 250.40286 -392.44431 4286014030
119.24999 251.39751 -392.51501 4285816387
119.12333 252.48 -392.5267 4286145352
118.98 253.53999 -392.70999 4286212438
119.1 253.29001 -392.15997 4286802499
118.88 254.44501 -392.72 4287065427
119.04 254.10001 -392.13 4286933834
118.82 255.455 -392.51999 4286671693
118.735 256.66 -392.4975 4286671697
118.67 257.64252 -392.435 4286737492
118.61666 258.42001 -392.48999 4286671179
118.514 259.50598 -392.582 4286473031
118.5325 260.51251 -392.45999 4286275653
118.63 261.48499 -392.4075 4286078533
118.68 262.55002 -392.54666 4285946683
118.64333 263.65332 -392.78 4285618757
118.77285 264.52142 -392.46857 4285487168
118.7625 265.5675 -392.5325 4285815616
114.85777 266.5611 -392.90222 4283978318
115.20792 266.57626 -392.75876 4283978318
118.7047 266.60703 -392.65765 4286409048
114.94 267.16 -392.97 4283978318
115.18333 267.13 -392.84335 4283978318
118.85001 267.24799 -392.59503 4286671958
119.09501 267.76834 -392.53165 4287065178
119.26174 268.39478 -392.44302 4287197788
119.43 269.42874 -392.55127 4287394649
119.54601 270.56799 -392.57397 4286604876
119.72833 271.47836 -392.43002 4286077760
119.94 272.375 -392.25 4285748537
120.04 272.85333 -392.11002 4286143292
120.18999 273.32874 -392.14374 4286537280
120.48 275.5 -392.25 4286933069
120.30882 276.68118 -392.38113 4286472773
120.6275 277.47125 -392.34433 4287131992
121.15333 277.87332 -392.69669 4286671440
120.85 278.20502 -392.18332 4287593572
121.38 278.55237 -392.53708 4287131990
121.36308 279.39767 -392.37234 4287131989
121.26499 280.48834 -392.215 4286538824
121.345 281.44833 -392.34836 4285946688
121.44693 282.41922 -392.46078 4285485610
121.80692 283.30923 -392.57922 4284303913
122.01666 283.85001 -392.63333 4284895280
124.26714 283.26639 -392.87286 4284174144
122.11364 284.43909 -392.56366 4284435503
122.35349 285.44827 -392.44781 4284170525
122.76499 286.37946 -392.46899 4285355069
123.075 286.70502 -392.85498 4285157172
123.24522 287.44177 -392.60559 4285880892
123.41909 288.42365 -392.59454 4285553465
123.69368 289.45419 -392.57947 4285553978
124.04 289.89999 -392.91 4284108586
123.92001 290.22665 -392.20667 4285488187
124.25471 290.55356 -392.61063 4285289522
124.54527 291.55789 -392.58585 4285948224
124.82749 292.41086 -392.55588 4286080582
125.045 292.61499 -392.95502 4285684283
124.849 293.64899 -392.39899 4284435507
125.03667 293.35001 -392.85001 4285816642
124.884 294.366 -392.32199 4283974944
125.09 294.54831 -392.83334 4283515431
124.89 295.20001 -392.09 4288060017
125.29143 295.52859 -392.67999 4286018645
125.39143 296.52856 -392.53 4285029695
125.5 297.45001 -392.54428 4286211919
131.97 297.75 -392.97 4282136876
132.47267 297.75598 -392.74402 4282399793
133.04668 297.86667 -392.76669 4283320904
125.506 298.526 -392.45401 4285620559
131.92 298.26001 -392.76001 4282334006
132.33333 298.43332 -392.60446 4282268209
133.18001 298.15399 -392.72198 4283321674
125.624 299.42603 -392.43799 4284242244
126.085 299.535 -392.88 4285421881
125.41 300.34335 -392.19003 4282661678
126.05 300.53 -392.72 4285622091
125.63333 301.43835 -392.38501 4284239937
126.245 301.53497 -392.87 4285292098
125.5725 302.36749 -392.3725 4284107321
126.33 302.34 -392.95001 4283911999
124.97 303.85001 -392.07999 4281542424
125.415 303.31 -392.32001 4281545511
126.3 303.36499 -392.91 4282662182
124.92 304.54999 -392.10999 4282529847
125.61572 304.42142 -392.52713 4282399018
126.09 304.60999 -392.81 4283254324
124.86 305.98001 -392.20001 4282330661
125.60333 305.36002 -392.56332 4282001953
124.37 306.73999 -392.07001 4282530336
125.27 306.72 -392.51001 4282335786
126.17 306.62 -392.97 4282137643
124.55 307.67999 -392.29248 4282924585
125.57999 307.46997 -392.76001 4282004514
123.7675 308.57498 -392.11249 4284701244
124.42375 308.64499 -392.42877 4284241209
125.49 308.71002 -392.875 4283977781
123.69299 309.48505 -392.28098 4282265366
124.37 309.47665 -392.56998 4281478173
125.39999 309.59998 -392.94 4283121185
123.70333 310.43668 -392.21167 4282724889
124.51001 310.29001 -392.62662 4282201120
123.55667 311.28668 -392.14331 4281346069
124.522 311.47601 -392.72198 4282003478
122.51 312.73999 -392.01001 4281611289
123.51749 312.29248 -392.32251 4280884495
124.446 312.57599 -392.81403 4280753427
121.74 313.89999 -392.04001 4280228110
122.84 313.56332 -392.43332 4281608219
123.555 313.60498 -392.76501 4281936409
124.19 313.42499 -392.92499 4281608729
121.58 314.61603 -392.30597 4281410579
122.34 314.48502 -392.6062 4281213204
123.18 314.29999 -392.92001 4282067995
119.86 315.81 -392.06 4282002974
120.445 315.60837 -392.25003 4281017111
121.26501 315.54999 -392.64169 4281411098
122.09 315.16 -392.82999 4281215258
119.67834 316.61081 -392.15747 4281152300
120.53001 316.53665 -392.5679 4281608733
121.16333 316.34 -392.91333 4280359697
118.49637 317.73273 -392.23816 4281675041
119.5269 317.48862 -392.44107 4281017881
120.44999 317.32999 -392.72797 4281609760
113.70599 318.88696 -392.20697 4281413668
114.52499 318.7475 -392.23251 4281544228
115.52666 318.75775 -392.14664 4281479460
116.57333 318.81 -392.14664 4280951834
117.53353 318.48059 -392.20883 4281479717
118.40044 318.48953 -392.63593 4281479204
119.29166 318.25497 -392.89502 4280755226
112.72578 319.52039 -392.48117 4281807395
113.54721 319.19113 -392.64557 4281347363
114.52144 319.53949 -392.75287 4281347104
115.42874 319.38748 -392.46002 4281282085
116.448 319.40799 -392.414 4281017886
117.47729 319.3718 -392.57364 4281544745
118.23334 319.38 -392.81332 4281413665
112.49684 320.46738 -392.59366 4281477920
114.41833 320.22333 -392.8667 4280952349
112.5089 321.37335 -392.46335 4281149213
122.52201 323.741 -392.802 4281610796
122.64653 324.50153 -392.6069 4280821021
123.24416 324.57501 -392.84335 4280427289
122.73454 325.26913 -392.36819 4281543460
123.51299 325.40073 -392.62759 4280558619
124.2 325.76334 -392.81665 4280492568
123.48524 326.39429 -392.36383 4282003755
124.33684 326.4537 -392.76526 4281147929
123.505 327.25 -392.52502 4283453007
124.34428 327.16998 -392.78 4281740055
108.74 331.73999 -392.03 4283254832
108.69999 332.70889 -392.21777 4281480750
108.74805 333.56656 -392.35577 4281413671
109.02 333.75 -393 4280887323
108.75777 334.30112 -392.27612 4281611051
109.13222 334.71445 -392.68887 4281610789
108.755 335.45749 -392.07501 4280952606
109.57388 335.39609 -392.49942 4281676071
110.5179 335.78421 -392.61478 4281282846
111.35333 335.84 -392.75 4284440148
108.81 336.51001 -392.04999 4280953122
109.573 336.31201 -392.159 4281741096
110.40115 336.52115 -392.33041 4281084960
111.40112 336.28778 -392.57446 4282007607
108.77 337.22 -392.03 4280886813
109.4875 337.50122 -392.13129 4281347622
110.54501 337.50998 -392.37003 4281281309
111.27 337.63849 -392.63312 4281546277
108.92 338.54001 -392.01001 4281215256
109.56 338.51999 -392.12 4281216558
110.57251 338.5925 -392.24875 4281479207
111.51118 338.33704 -392.53531 4281940785
109.505 339.375 -392.04498 4281280797
110.5525 339.45502 -392.2175 4281282858
111.485 339.41748 -392.32129 4281479723
112.44112 339.38443 -392.25626 4283518536
110.44501 340.755 -392.10999 4281413665
111.59167 340.49667 -392.30664 4281281573
112.38667 340.56223 -392.48218 4281742891
110.72 341.45334 -392.05002 4281938732
111.686 341.53598 -392.21402 4281741090
112.55375 341.54749 -392.43878 4281412641
113.37177 341.58765 -392.69 4283386691
116.08 341.94 -392.01001 4283978318
110.64 342.48999 -392.03 4281216039
111.4025 342.48001 -392.17749 4281413155
112.46889 342.46555 -392.47113 4281215780
113.31651 342.54202 -392.83795 4281479978
115.66811 342.66504 -392.22687 4283978318
116.145 342.23337 -392.19333 4283978318
110.39 343.01001 -392.03 4281676327
111.49667 343.41666 -392.25668 4281085731
112.52418 343.56665 -392.46335 4281281317
113.48934 343.3927 -392.77399 4281151015
115.3082 343.40961 -392.45181 4283978318
110.84 344.23001 -392.09 4282728255
111.6357 344.63571 -392.26001 4282403400
112.44112 344.59555 -392.46445 4280954401
113.46117 344.44708 -392.76349 4281019429
114.81778 344.63776 -392.82666 4283452225
115.23571 344.37143 -392.31711 4283583815
111.5 345.25 -392.10498 4281743671
112.26334 345.16666 -392.33667 4281678131
115.27 345.25 -392.01001 4281414955
136.67332 350.76111 -392.14221 4284898125
136.53799 351.41699 -392.21802 4285095238
135.64 352.70001 -392.04001 4287662463
136.395 352.36499 -392.26501 4284831297
134.56 353.70502 -392.10498 4289765780
135.53999 353.35001 -392.17334 4287926395
136.41667 353.41666 -392.38669 4284173889
126.06 354.94 -392.01001 4287466881
127.3 354.78 -392.01001 4288055416
129.89 354.67001 -392.01001 4288449661
130.72 354.69998 -392.06335 4288516994
131.53333 354.59668 -392.06998 4288844931
132.39 354.64999 -392.14999 4288518283
133.42749 354.54752 -392.19501 4289173897
134.455 354.535 -392.28 4289043597
135.52 354.54251 -392.39502 4287791212
136.48375 354.72626 -392.54626 4285552192
137.10001 354.86499 -392.73999 4284895037
123.515 355.53998 -392.04999 4285752649
124.51 355.45001 -392.08002 4284046418
125.39 355.73499 -392.17499 4287267707
126.75999 355.39499 -392.16498 4286807656
127.47501 355.52002 -392.23999 4286939509
128.49998 355.50201 -392.27402 4288254602
129.52499 355.29001 -392.23499 4288385411
130.39 355.17001 -392.23001 4288647814
131.26001 355.55499 -392.405 4288254075
132.36 355.38 -392.40002 4288253567
133.5575 355.34998 -392.44998 4288450688
134.51999 355.55499 -392.58002 4288515453
135.47 355.72 -392.7233 4287988598
136.51999 355.47568 -392.7164 4285027645
137.18182 355.37274 -392.77277 4283977013
122.845 356.255 -392.07001 4287070060
123.535 356.53 -392.16501 4284174389
124.285 356.31 -392.20502 4285099617
125.8 356.81 -392.38 4285554788
126.34 356.12 -392.32999 4286281838
127.375 356.44501 -392.465 4285623650
128.3 356.28998 -392.495 4288056965
129.22 356.54999 -392.595 4288450691
130.25334 356.54663 -392.63333 4288056189
131.345 356.71002 -392.72 4288121718
132.34 356.26999 -392.66 4288252535
133.64999 356.29999 -392.73999 4288515713
134.53334 356.61667 -392.90332 4288582021
135.55499 356.29498 -392.935 4287464300
136.5 356.09 -392.91666 4284763964
137.10001 356.12 -392.98999 4283385653
121.45 357.60498 -392.03 4288385413
122.52334 357.26669 -392.12668 4288188036
123.3425 357.61502 -392.23499 4287529077
124.405 357.35498 -392.31 4285162834
125.54 357.59 -392.41 4287266418
126.54833 357.66165 -392.52502 4287002217
127.685 357.67001 -392.67999 4287596666
128.52499 357.40997 -392.71002 4288187264
129.474 357.38998 -392.75998 4288186491
130.5325 357.56 -392.85004 4287923057
131.41501 357.715 -392.92999 4287988853
132.54001 357.27002 -392.89499 4287925628
121.4775 358.53497 -392.07751 4288319619
122.67 358.54498 -392.215 4288055670
123.445 358.63 -392.315 4286605656
124.31 358.40332 -392.38333 4285162572
125.46 358.29001 -392.47 4286347887
126.55251 358.53998 -392.62 4287003759
127.575 358.56 -392.77997 4287267192
128.64999 358.35999 -392.86169 4288054646
129.44 358.25 -392.91 4288120952
120.575 359.57501 -392.02499 4288188549
121.4875 359.57001 -392.1225 4288122237
122.55 359.52496 -392.2525 4287659634
123.5 359.76999 -392.39999 4284631343
124.62667 359.45999 -392.50668 4284505429
125.665 359.63 -392.62 4284635719
126.59 359.55249 -392.73251 4285819222
127.38 359.23331 -392.83667 4285558363
128.14999 359.345 -392.95502 4287859069
120.61499 360.42499 -392.04999 4287925890
121.43333 360.51334 -392.14331 4288188031
122.4775 360.56 -392.29749 4287661431
123.4275 360.52252 -392.44501 4285947736
124.30666 360.52332 -392.55002 4284568389
125.625 360.47 -392.66501 4283121202
126.44666 360.45999 -392.75668 4284044103
127.55334 360.50668 -392.92667 4285952610
120.53333 361.31998 -392.03671 4287266933
121.605 361.46002 -392.185 4287332722
122.21333 361.51001 -392.28665 4287792498
123.49751 361.51999 -392.48502 4286674279
124.725 361.54001 -392.60498 4285885276
125.49667 361.27335 -392.67001 4286211668
126.41 361.64331 -392.76669 4286475873
127.434 361.478 -392.91599 4287135090
120.77 362.40997 -392.03998 4286674283
121.49 362.38834 -392.16165 4286675046
122.63667 362.48999 -392.34335 4285950039
123.48 362.41666 -392.48331 4283386677
124.43201 362.44797 -392.57599 4283188277
125.428 362.58398 -392.64203 4284433972
126.538 362.60001 -392.76602 4285157441
127.41666 362.63669 -392.90665 4286609512
120.95 363.03 -392.04999 4286805355
121.69428 363.55002 -392.10995 4286673508
122.39 363.3978 -392.22778 4286672992
123.27666 363.70337 -392.41 4283448109
124.5675 363.55502 -392.54999 4283976246
125.55 363.39331 -392.60999 4285284650
126.634 363.29199 -392.73798 4285417273
127.32 363.54666 -392.84998 4285817421
121.66 364.48499 -392.04498 4286344547
122.38 364.52002 -392.18335 4286079053
123.24 364.63 -392.37 4285945145
124.37 364.58002 -392.48499 4285155377
125.5475 364.42252 -392.57001 4284231458
126.52 364.62332 -392.70499 4285548086
127.53333 364.38 -392.91 4287262304
122.65 365.66998 -392.09497 4285353273
123.52 365.53253 -392.26248 4283903009
124.58375 365.56876 -392.37378 4282459422
125.64 365.375 -392.60248 4283445537
126.30334 365.36002 -392.75 4284826166
127.01 365.32999 -392.89999 4285552718
123.55666 366.48666 -392.08334 4283446305
124.55601 366.48801 -392.26001 4284364076
125.5525 366.63498 -392.54752 4284957497
126.71667 366.41333 -392.91 4284962892
124.51666 367.57666 -392.13998 4283250217
125.4325 367.54749 -392.41248 4283251250
126.48334 367.55331 -392.74667 4284502341
127.17 367.35001 -392.95001 4285354064
124.69999 368.68668 -392.16333 4285027650
125.546 368.45001 -392.43201 4285619533
126.38 368.39001 -392.67999 4286014806
127.255 368.37 -392.94 4287263845
124.53401 369.526 -392.15799 4284239164
125.47501 369.57999 -392.46249 4284962894
126.6 369.37 -392.78 4284634948
124.60556 370.46887 -392.20221 4285093962
125.38 370.29001 -392.45999 4284637005
126.505 370.59 -392.79999 4285621590
127.215 370.57501 -392.97498 4286344025
123.97 371.81 -392.01001 4285094737
124.47 371.42334 -392.16 4286145875
125.485 371.54749 -392.5025 4285422670
126.605 371.54001 -392.80249 4286082146
127.18 371.66 -392.92999 4287000937
124.745 372.60498 -392.22 4283322689
125.59 372.70667 -392.45166 4285424473
126.46249 372.41251 -392.70251 4285031000
127.445 372.41 -392.95001 4286935910
124.73667 373.46335 -392.12332 4283977277
125.51 373.63 -392.31 4285162590
126.325 373.60498 -392.54999 4285161554
127.475 373.625 -392.85999 4286279268
124.84 374.53 -392.06 4284635460
125.46999 374.51144 -392.23569 4284305475
126.52334 374.54666 -392.52002 4285292121
127.39714 374.49002 -392.75143 4286477675
128.065 374.70001 -392.88501 4287003249
124.88499 375.39001 -392.02499 4286083165
125.42 375.31 -392.16 4286672995
126.48 375.29498 -392.42999 4286543210
127.37499 375.41251 -392.63501 4287134835
128.21001 375.59 -392.81 4287461997
129.02 375.82001 -392.97 4287990653
125.605 376.33499 -392.155 4287529589
126.46 376.60999 -392.33002 4287661433
127.58501 376.375 -392.595 4288120955
128.39 376.47998 -392.77002 4287859070
129.13 376.64001 -392.92999 4288318078
125.61 377.67499 -392.12 4287333493
126.825 377.29999 -392.38 4287726191
127.57 377.38 -392.54001 4287856758
128.36 377.54999 -392.72 4287530359
129.2 377.53 -392.92999 4287792761
125.455 378.625 -392.065 4287333753
126.33 378.405 -392.25 4287529844
127.28 378.38 -392.45502 4287595380
128.50198 378.634 -392.776 4287661430
125.66 379.04001 -392.09 4287727741
126.50666 379.66333 -392.28003 4287661173
127.51833 379.63333 -392.535 4287660660
128.455 379.61169 -392.83334 4287661690
129.02 379.13 -392.98001 4287925116
125.59333 380.69003 -392.14664 4287596152
126.55125 380.45627 -392.39499 4287661686
127.462 380.39801 -392.67401 4287857785
128.185 380.27499 -392.88501 4288185714
124.76 381.79001 -392.16498 4287595377
125.466 381.48401 -392.328 4287923577
126.49332 381.41666 -392.67667 4287726966
124.53333 382.25 -392.22665 4287462759
125.49555 382.45889 -392.71887 4286345575
126.35 382.22 -392.95999 4287397489
72.675003 -70.334999 -391.88 4281017876
73.526665 -70.26667 -391.72168 4280427292
74.49556 -70.254448 -391.77441 4280229654
75.285004 -70.172501 -391.8475 4279903253
71.720001 -69.416664 -391.49332 4280690459
72.56778 -69.665558 -391.33444 4281149728
73.368576 -69.772858 -391.22711 4280624410
74.528 -69.788002 -391.194 4280820504
75.470352 -69.510002 -391.45584 4280952345
76.354004 -69.259003 -391.88397 4281018912
77.349998 -69.120003 -391.92001 4279904800
78.019997 -69.089996 -391.98001 4281149969
69.769997 -68.25 -391.97 4279508764
70.48793 -68.369652 -391.6593 4279901973
