# .PCD v0.7 - Point Cloud Data file format
VERSION 0.7
FIELDS x y z rgba
SIZE 4 4 4 4
TYPE F F F U
COUNT 1 1 1 1
WIDTH 1190
HEIGHT 1
VIEWPOINT 0 0 0 1 0 0 0
POINTS 1190
DATA ascii
384.44736 204.47766 -476.30704 4281282599
385.31577 204.5173 -476.72195 4281282084
386.58572 204.58144 -476.92999 4281348136
387.56335 204.68166 -476.89331 4281479720
388.63635 204.71053 -476.77313 4281939761
389.49042 204.49001 -476.82388 4282202929
379.79333 205.47166 -476.04166 4281412902
380.51587 205.36179 -476.1741 4281347364
381.61111 205.58444 -476.07114 4281151016
382.56403 205.51466 -476.23996 4281085479
383.53113 205.47557 -476.42496 4281281574
384.42221 205.40945 -476.48166 4281215780
385.55997 205.48106 -476.68735 4281281568
386.44373 205.48874 -476.89191 4281347880
387.56204 205.45734 -476.85333 4281413412
388.48349 205.59129 -476.72171 4281347621
389.55765 205.4556 -476.7291 4281479463
390.07001 205.92999 -476.85001 4281347368
377.82251 206.6225 -476.12253 4281740322
378.27301 206.42 -476.17001 4281347369
381.75 206.25 -476.12 4281020464
382.61911 206.39455 -476.15909 4281084962
383.5032 206.55792 -476.37741 4281281569
384.46121 206.49359 -476.5148 4281150237
385.62903 206.50237 -476.55716 4281412641
386.16428 206.46573 -476.86002 4281609255
387.49945 206.45573 -476.81763 4281216290
388.41571 206.51523 -476.83862 4281151011
389.54285 206.22049 -476.75903 4281085478
390.3089 206.50555 -476.90555 4281216550
384.5943 207.13713 -476.16714 4281216035
385.59506 207.5425 -476.34836 4281215518
386.23135 207.51598 -476.82867 4281215781
387.69199 207.20601 -476.92596 4281282085
388.49332 207.13667 -476.94333 4281085222
392.81 207.73 -476.98001 4281742638
393.16 207.955 -476.86499 4281677356
385.69876 208.52249 -476.31625 4281019170
386.22858 208.30214 -476.78644 4281150242
389.58856 208.52931 -476.80786 4281281313
390.55466 208.67307 -476.53308 4281282341
391.37665 208.79333 -476.79004 4281610021
392.68869 208.54819 -476.82413 4281413926
393.41922 208.48308 -476.72998 4281742893
384.74942 209.4247 -476.2659 4281149725
385.43625 209.46956 -476.62204 4280558875
391.66861 209.2793 -476.28641 4281610533
392.45114 209.47412 -476.29059 4281479464
393.37524 209.53999 -476.48093 4281545515
384.69403 210.186 -476.60199 4280888350
385.12668 210.05669 -476.87332 4280823581
391.25 210.75 -476.01001 4281610788
393.4978 210.44609 -476.40518 4281545002
392.22 211.28999 -476.10001 4281478179
393.81873 211.29498 -476.41873 4281808170
394.02002 211.745 -476.625 4282202165
408.75 -6.25 -475.37 4281347364
409.59277 -6.1399999 -475.30002 4280953890
410.35095 -6.1836367 -475.28369 4281216295
411.66287 -6.1685715 -475.69711 4281085223
412.42844 -6.4507685 -475.72391 4281216806
413.54163 -6.4641666 -475.65088 4281085478
414.37619 -6.4869227 -475.75229 4281019430
415 -6.7399998 -476 4281347878
408.48468 -5.5711765 -475.22534 4280822309
409.54599 -5.5900002 -475.41901 4281019941
410.45847 -5.5469236 -475.70618 4280954404
411.39182 -5.8036361 -475.88 4281282090
408.72 -4.71 -475.03 4281281571
409.50101 -4.6040001 -475.33197 4281216550
410.47198 -4.6135001 -475.76602 4281151531
411.215 -4.4099998 -475.95001 4281085740
410.74252 -3.4833336 -475.31836 4281151530
411.34189 -3.4349999 -475.60123 4281216804
410.7627 -2.4681818 -475.28821 4281282343
411.50241 -2.4088001 -475.52399 4281085220
412.38669 -2.2766666 -475.89163 4280954153
410.77112 -1.5466666 -475.84445 4281084967
411.40353 -1.3929412 -475.61407 4281085226
412.5014 -1.6478571 -475.69821 4281019948
413.095 -1.4275 -475.94751 4281282349
411.73361 -0.80363649 -475.79636 4281282863
412.41125 -0.72687495 -475.82126 4281217582
410.69388 0.68076921 -475.87228 4281085737
411.25916 0.61500001 -475.84164 4281216808
397.56998 1.7640002 -475.11798 4286273870
398.25287 1.8414286 -475.1557 4280820757
401.68198 1.7590001 -475.21796 4281413413
409.80997 1.7666668 -475.92831 4281348133
410.59601 1.4988569 -475.7923 4281217070
411.31351 1.3923531 -475.80533 4281348400
397.64801 2.316 -475.14404 4283913296
398.43207 2.4631035 -475.28342 4281544485
399.55701 2.6341176 -475.36295 4281347876
400.25171 2.79 -475.19498 4281413676
402.75 2.25 -475.01001 4281479210
403.39398 2.471 -475.121 4281283119
409.82001 2.1550002 -475.95502 4281479203
410.54199 2.1440001 -475.93198 4281348397
398.71335 3.2166665 -475.25 4281742634
399.5632 3.4686358 -475.26639 4281676847
400.11331 3.2116668 -475.10165 4281545005
403.85999 3.4000001 -475.03 4281348133
404.5 3.5827277 -475.15726 4281544746
405.46555 3.6199999 -475.16336 4281478695
406.59442 3.821111 -475.23889 4280954925
407.58334 3.7766666 -475.30664 4281151278
411.5 3.7550001 -475.935 4281217582
412 3.75 -475.98001 4281217842
400.14999 4.4200001 -475.03998 4281479728
401.77573 4.7892861 -475.23785 4281151788
402.58212 4.5900002 -475.51306 4281282855
403.45477 4.7043481 -475.32825 4281283116
404.64551 4.5485001 -475.19403 4281545003
405.53333 4.6150002 -475.26004 4281544490
406.45154 4.4515386 -475.14539 4281216557
407.28665 4.2033334 -475.09 4281281568
408.66 4.8500004 -475.1525 4280756775
400.67667 5.4366665 -475.02002 4281348138
401.63284 5.4660006 -475.32761 4281217065
402.47546 5.664546 -475.77634 4281217579
403.56265 5.4186659 -475.68399 4281283375
404.47501 5.5654545 -475.29861 4281283375
405.40741 5.5362968 -475.24817 4281151789
406.39832 5.3366666 -475.30667 4281282601
407.29999 5.1999998 -475.08398 4281084970
408.26001 5.1985712 -475.23431 4281149983
400.8725 6.4724998 -475.07001 4281348390
401.48117 6.5652947 -475.3306 4281348134
402.55096 6.4889998 -475.62958 4281217835
403.38821 6.4911766 -475.77353 4281348910
404.51456 6.5090909 -475.46725 4281348911
405.27802 6.3119998 -475.414 4281217322
406.13 6.2449999 -475.53998 4281217324
400.88669 7.5666671 -475.12 4281348396
401.47131 7.5633335 -475.37402 4281217063
402.36667 7.3244443 -475.57889 4281283371
403.49094 7.2536364 -475.73087 4281414186
404.50891 7.5711112 -475.30447 4281283377
405.14716 7.5328574 -475.20285 4281414446
400.94 8.0200005 -475.14001 4281282867
401.26401 8.2020006 -475.34799 4281217836
404.81998 8.4233332 -475.17001 4281348906
405.12714 8.3900003 -475.07004 4281414442
404.91666 9.333333 -475.24667 4281348652
405.17999 9.2720003 -475.13397 4281479468
404.81665 15.670001 -475.51669 4281348911
405.49896 15.628499 -475.38843 4281019432
404.75287 16.255714 -475.18143 4281152296
405.49295 16.42963 -475.27557 4281412903
406.44455 16.396858 -475.56372 4280559138
404.82797 17.801998 -475.17203 4281611568
405.49249 17.503 -475.44049 4281414447
406.06 17.52 -475.94 4281610543
403.89996 18.795 -475.46252 4281545518
404.44681 18.510311 -475.46967 4281611826
405.57501 18.441109 -475.55554 4281676589
406.19 18.598751 -475.84003 4281414188
407.98001 18.530001 -475.98999 4281546289
408.396 18.577999 -475.97998 4281612082
403.67334 19.148333 -475.79663 4281480500
404.67926 19.25 -475.81 4281415217
405.55368 19.637272 -475.72723 4281611567
406.319 19.520954 -475.76285 4281480234
407.255 19.869999 -475.995 4281349416
405.685 20.130001 -475.97501 4281676325
406.55716 20.255716 -475.92856 4281414701
403.81665 22.541666 -475.86166 4280558625
404.63501 22.641668 -475.8833 4281414441
405.22 22.545 -475.98999 4282070571
411.82501 22.959999 -475.94 4281676843
401.73569 23.550003 -475.16357 4281873963
402.487 23.649 -475.36899 4281873967
403.6311 23.613333 -475.44775 4281742895
404.55228 23.605907 -475.65091 4281677618
405.61777 23.611111 -475.94775 4281742642
406.09 23.75 -475.98001 4281414708
411.5275 23.437502 -475.858 4281546027
412.09 23.395 -475.935 4281808679
401.62646 24.532145 -475.19147 4281546285
402.46887 24.42889 -475.33441 4281677873
403.50308 24.287691 -475.39304 4281742894
404.61133 24.562 -475.61932 4281612335
405.40002 24.282001 -475.87402 4281742894
406.13 24.145 -475.98001 4281677359
400.32999 25.93 -475.01999 4282201128
401.49738 25.348661 -475.18799 4281873965
402.466 25.467999 -475.396 4281808944
403.66199 25.51 -475.638 4281809201
404.26801 25.440002 -475.784 4281808946
405.01001 25.129999 -475.92001 4281743157
398.81 26.9 -475.01001 4281873956
399.58362 26.615908 -475.17233 4281808945
400.34073 26.522858 -475.1557 4281874221
401.5657 26.636429 -475.23148 4281873965
402.52554 26.613335 -475.60449 4281742896
403.44403 26.427999 -475.81601 4281677355
404.06 26.57 -475.97 4281940273
398.81 27.549999 -475.01001 4282201653
399.41833 27.339167 -475.13501 4281874483
400.54233 27.442305 -475.10464 4282005553
401.59171 27.422918 -475.22745 4281808938
402.60556 27.527779 -475.70502 4281743152
403.38303 27.646156 -475.87619 4281676845
398.85999 28.43 -475.04999 4282267442
399.59198 28.641998 -475.09 4281809206
400.569 28.530003 -475.06299 4281743662
401.44543 28.47773 -475.25049 4281808688
402.52759 28.558096 -475.71146 4281677869
403.54001 28.449682 -475.77679 4281677359
404.13834 28.323334 -475.88834 4281612075
398.79666 29.446665 -475.09 4281940015
399.5864 29.487274 -475.20999 4281808687
400.45313 29.465 -475.22748 4281939759
401.50778 29.452219 -475.51605 4281808686
402.34937 29.578825 -475.88937 4281611820
403.20749 29.145 -475.94 4281547315
398.7233 30.309999 -475.06335 4281874738
399.48288 30.234285 -475.20856 4281808944
400.31601 30.360001 -475.284 4281677872
401.521 30.475998 -475.539 4281808429
402.50833 30.445 -475.7933 4281873966
403.14001 30.6 -475.95999 4282201906
398.95001 31.475 -475.04001 4281481778
399.76498 31.541666 -475.23166 4281808688
400.45248 31.545 -475.36249 4281940016
401.51752 31.584999 -475.55249 4281809203
402.543 31.632 -475.77603 4281940016
403.15802 31.526001 -475.966 4281940274
398.94 32.25 -475.01001 4282071861
399.44299 32.618999 -475.17596 4282006066
400.47202 32.564003 -475.39999 4281940017
401.39001 32.42667 -475.51001 4281940527
402.56 32.591251 -475.68253 4282006065
403.19998 32.509998 -475.91501 4281809198
398.58749 33.4925 -475.0575 4282136626
399.43781 33.541111 -475.20444 4281874994
400.58667 33.416668 -475.35831 4281940531
401.49249 33.6525 -475.4212 4282006322
402.45181 33.549999 -475.5188 4282202677
403.25275 33.561359 -475.80676 4282071860
397.86499 34.595001 -475.10001 4281809202
398.54999 34.397499 -475.19247 4281940530
399.42999 34.349998 -475.29752 4281940534
400.63702 34.354 -475.35101 4282006065
401.61798 34.458 -475.40497 4281874995
402.58316 34.598419 -475.61319 4282071091
403.32498 34.543339 -475.79419 4282071345
397.84668 35.536667 -475.06665 4282005810
398.46103 35.542999 -475.24503 4281939760
399.42575 35.454281 -475.38281 4281809202
400.45776 35.57 -475.55554 4281743152
401.37402 35.441998 -475.56796 4281874226
402.46866 35.563335 -475.73001 4282071345
403.40332 35.506668 -475.87338 4281940272
398.31201 36.341999 -475.12396 4282071348
399.64999 36.369999 -475.43668 4282070830
400.47751 36.52 -475.55878 4281873966
401.5675 36.502502 -475.64496 4282071090
402.51898 36.611 -475.75797 4281940013
403.60498 36.555 -475.94751 4281809204
398.62918 37.626667 -475.1492 4281940275
399.517 37.484001 -475.41904 4281874224
400.42072 37.54285 -475.51221 4282005294
401.61234 37.523846 -475.73846 4281809201
402.34003 37.396366 -475.90451 4281874480
403.06 37.040001 -475.97 4281940532
397.82999 38.849998 -475.14664 4281939762
398.55588 38.474136 -475.44067 4281874227
399.50586 38.589417 -475.7453 4281808689
400.24557 38.537777 -475.63107 4281677873
401.57181 38.441818 -475.79733 4281940527
402.38202 38.389999 -475.94598 4281940788
397.80664 39.421665 -475.125 4281874993
398.55579 39.375832 -475.48831 4281808947
399.46484 39.448399 -475.69202 4281677360
400.43231 39.534615 -475.60077 4281612076
401.63998 39.397144 -475.78571 4282005809
402.44998 39.353333 -475.93335 4282006065
397.815 40.199997 -475.03 4282005808
398.60666 40.51889 -475.13782 4281940271
399.53958 40.489552 -475.25275 4281874480
400.34714 40.387199 -475.36761 4281874480
401.43774 40.538887 -475.80887 4282268981
398.76202 41.370003 -475.07999 4281809199
399.53635 41.313637 -475.22723 4281874739
400.52499 41.412498 -475.50125 4282071857
401.435 41.609505 -475.78906 4282334515
402.31403 41.737999 -475.92596 4282203706
397.73999 42.642002 -475.07602 4282202933
398.57385 42.322304 -475.22391 4282137398
399.47336 42.473335 -475.40503 4282465849
400.56857 42.597141 -475.58286 4282400828
401.58792 42.434212 -475.70688 4282400055
402.38736 42.534786 -475.797 4282268985
403.095 42.695 -475.97998 4282137402
397.62888 43.614449 -475.18115 4282137651
398.37778 43.435558 -475.34332 4282334517
399.38501 43.494999 -475.4975 4282335548
400.5025 43.495003 -475.67749 4282466620
401.358 43.427998 -475.85699 4282400313
402.47998 43.059998 -475.95334 4282203449
397.53802 44.522999 -475.19989 4282137911
398.3725 44.411247 -475.39624 4282335544
399.54202 44.57 -475.58002 4282400824
400.58218 44.451111 -475.87885 4282466362
401.09 44.049999 -475.98001 4282400571
397.758 45.300003 -475.15601 4282532155
398.49182 45.515453 -475.25906 4282466363
399.40662 45.676674 -475.41873 4282466363
400.595 45.457855 -475.80716 4282466362
401.07999 45.75 -475.94 4282532156
397.72003 46.638 -475.09 4282860609
398.56754 46.5508 -475.224 4282795072
399.42096 46.469997 -475.36478 4282729278
400.60007 46.46909 -475.64276 4282729278
401.36203 46.452995 -475.86603 4282729279
402.17001 46.573334 -475.96335 4282532670
397.52942 47.551109 -475.1478 4282532154
398.42819 47.434372 -475.41559 4282598205
399.45209 47.571724 -475.70386 4282597948
400.31995 47.435001 -475.74405 4282663998
401.44 47.302002 -475.82404 4282729792
402.09 47.419998 -475.95999 4282729793
396.72778 48.607777 -475.15891 4281940531
397.51004 48.495457 -475.31271 4282466875
398.54541 48.589169 -475.31711 4282532153
399.44781 48.555553 -475.46832 4282663996
400.306 48.461998 -475.69403 4282795582
401.51669 48.410004 -475.91333 4282861632
396.76999 49.267998 -475.09399 4281874480
397.49084 49.284168 -475.16666 4282335033
398.49503 49.434162 -475.1217 4282664767
399.34 49.402504 -475.33752 4282795840
400.51999 49.290001 -475.70502 4283059011
401.07999 49.970001 -475.85999 4283059011
398.67001 50.403336 -475.10001 4282795326
399.59 50.650002 -475.42001 4282795582
400.44 50.639999 -475.67999 4282993216
398.37332 51.533329 -475.08667 4282268469
399.16 51.474998 -475.31 4282796606
400.13 51.849998 -475.60999 4282993219
401.42001 51.720001 -475.98999 4283190341
398.47 52.565002 -475.17499 4281809461
395.69199 53.874001 -475.05402 4281678126
397.69 53.544998 -475.065 4282005047
398.89999 53.639999 -475.35999 4281940275
399.73999 53.049999 -475.54999 4282530874
400.94 53.5 -475.91 4283125568
394.77002 54.6525 -475.16333 4281809460
395.48761 54.476059 -475.25 4281874995
396.40924 54.55714 -475.14142 4281940533
397.45502 54.372498 -475.13501 4281613108
398.23999 54.32 -475.26999 4281874738
399.12 54.91 -475.5 4281742645
400.19 54.720001 -475.76001 4282006323
393.74332 55.733334 -475.06168 4281940011
394.57715 55.501423 -475.25336 4282005812
395.54428 55.511433 -475.35641 4281940530
396.45447 55.626667 -475.23111 4281809202
397.24667 55.430004 -475.23666 4281939760
398.32999 55.299999 -475.37 4281611044
399.12 55.84 -475.57001 4281938987
393.75 56.380001 -475.08286 4281874740
394.46484 56.460434 -475.25659 4282071604
395.52249 56.401878 -475.35312 4282137908
396.47803 56.585003 -475.25702 4281874743
397.22198 56.402 -475.30801 4281677362
398.61398 56.459999 -475.534 4281742642
399.52002 56.23 -475.69501 4281545773
394.76663 57.382504 -475.1633 4282007097
395.45999 57.43166 -475.32169 4282335035
396.4675 57.597504 -475.4025 4282006324
397.34 57.470001 -475.45999 4282135344
398.65747 57.380001 -475.6275 4281742379
399.37 57.165001 -475.745 4281545256
400.39001 57.389999 -475.98999 4281348648
394.55127 58.57375 -475.08627 4281875512
395.32999 58.527496 -475.28 4282138425
396.60248 58.6525 -475.58002 4282006071
397.53287 58.572857 -475.61285 4281741862
398.33002 58.5625 -475.6825 4281545251
399.61499 58.535 -475.91 4281282596
394.66171 59.509167 -475.1691 4282071860
395.50311 59.536869 -475.56754 4282072118
396.47998 59.421249 -475.83002 4282006325
397.53238 59.559418 -475.85349 4281873706
398.33145 59.644287 -475.82428 4281676333
399.48001 59.52 -475.98001 4281480237
394.79498 60.48 -475.09747 4281808432
395.57346 60.432682 -475.60999 4282202418
396.29727 60.795456 -475.89365 4282005295
397.59836 60.720005 -475.93002 4281939503
398.46448 60.541111 -475.92886 4282070832
399.23999 60.07 -476 4281415473
394.78003 61.458332 -475.11331 4281743153
395.42734 61.487896 -475.42053 4281874735
396.38818 61.49091 -475.76999 4281808688
397.48657 61.491577 -475.74521 4281874484
398.35645 61.397274 -475.82413 4282137142
393.95999 62.869999 -475.04001 4281742384
394.54752 62.521248 -475.13123 4281939503
395.44452 62.467274 -475.33777 4282071088
396.50375 62.485416 -475.73795 4282007096
397.38556 62.240005 -475.88889 4282401340
398.03 62.040001 -475.92999 4282926914
393.91 63.799999 -475.04999 4282335291
394.54416 63.443329 -475.14001 4282072119
395.40164 63.376114 -475.26221 4281875251
396.52597 63.587337 -475.4913 4283387981
397.28366 63.51368 -475.75415 4283979602
392.98999 64.989998 -475.04999 4281809717
393.41498 64.639999 -475.11752 4282268982
394.58249 64.514999 -475.34 4282334779
395.60114 64.454437 -475.5155 4282796357
396.53653 64.515999 -475.55844 4284111446
397.4433 64.470665 -475.7767 4283782996
392.89999 65.580002 -475.04498 4282138168
393.4718 65.487274 -475.28 4282268985
394.52402 65.612 -475.552 4282401082
395.40002 65.441757 -475.75708 4283323475
396.43057 65.402229 -475.82385 4284112220
397.14999 65.313995 -475.89999 4284111704
392.90665 66.433327 -475.07333 4282269499
393.48398 66.562668 -475.22736 4282334781
394.47 66.443993 -475.47998 4282269498
395.62332 66.451668 -475.74332 4284046427
396.48941 66.443756 -475.79373 4284309343
397.06003 66.533333 -475.93997 4284506719
392.97 67.860001 -475.07001 4282861890
393.55548 67.564491 -475.15704 4282663999
394.29669 67.48333 -475.29443 4282203193
395.52399 67.464005 -475.63199 4283717204
396.42374 67.487495 -475.81122 4284309599
392.715 68.559998 -475.05499 4282992966
393.45337 68.392227 -475.23221 4282992963
394.3186 68.419998 -475.37003 4282663995
395.40665 68.659996 -475.67334 4283454548
396.23669 68.489998 -475.92667 4284309082
392.67166 69.488335 -475.09506 4282402111
393.45142 69.561424 -475.23285 4282993476
394.5 69.507271 -475.40457 4283124029
395.36499 69.452499 -475.72501 4283256652
391.88501 70.419998 -475.03998 4282335548
392.582 70.505997 -475.15601 4282203705
393.63861 70.504288 -475.31146 4282466615
394.5618 70.459991 -475.55725 4282664511
395.23001 70.114998 -475.78 4283057731
391.78 71.439995 -475.06332 4282071861
392.49002 71.485558 -475.23111 4282269496
393.46887 71.439995 -475.46109 4282532413
394.41501 71.505005 -475.72 4282401853
395.29999 71.239998 -475.97 4282927432
391.64331 72.366669 -475.13333 4282466368
392.65717 72.354286 -475.45285 4282401087
393.31665 72.501671 -475.61337 4282532928
394.41498 72.330002 -475.83002 4282533953
390.54999 73.75 -475.01999 4282072637
391.37857 73.422859 -475.14285 4282533444
392.57333 73.363335 -475.42334 4282599236
393.5 73.760002 -475.64001 4282992710
394.58667 73.546669 -475.91666 4283124292
390.66748 74.462502 -475.09253 4282334524
391.70334 74.510002 -475.29333 4282204987
392.40665 74.75 -475.43002 4282533187
393.58667 74.676666 -475.66666 4283059020
394.53333 74.470001 -475.90332 4282534216
390.72 75.625 -475.07001 4282663741
391.42502 75.426674 -475.26669 4282730051
392.42252 75.457504 -475.47247 4283059535
393.306 75.492004 -475.66202 4283454292
394.29501 75.634995 -475.89999 4283190861
390.78 76.425003 -475.07999 4282468169
391.43198 76.427994 -475.254 4283060304
392.60999 76.770004 -475.57501 4282994253
393.48831 76.491661 -475.80334 4283058500
390.73999 77.445 -475.07001 4282994004
391.55853 77.58857 -475.26715 4283323213
392.70334 77.389999 -475.6467 4282730311
393.30801 77.509995 -475.81403 4282336061
389.97 78.839996 -475.01001 4282138166
390.70667 78.456665 -475.04333 4283323482
391.57886 78.638824 -475.13235 4283520075
392.39304 78.573845 -475.36389 4282664768
393.42999 78.561996 -475.73798 4282664001
394.14499 78.705002 -475.935 4282665288
389.82001 79.5 -475.03998 4281809463
390.495 79.490005 -475.04248 4283388754
391.56375 79.557495 -475.05627 4283190603
392.56 79.442665 -475.29935 4282533185
393.30875 79.39875 -475.58875 4282401859
394.22 79.716667 -475.8667 4282664515
388.82001 80.610001 -475.01001 4281086766
389.51157 80.510002 -475.05307 4281414190
390.51819 80.469093 -475.04364 4281942590
391.41498 80.416 -475.108 4282666062
392.36429 80.278572 -475.34286 4282138683
393.69666 80.482498 -475.70752 4282204215
394.40866 80.420006 -475.84598 4282270011
395 80.260002 -475.98999 4282664514
391.32333 81.45166 -475.12668 4282137662
392.50247 81.485001 -475.465 4282071864
393.67151 81.488472 -475.84772 4281940791
394.26999 81.129997 -475.95001 4282268477
391.38751 82.630005 -475.16751 4282071608
392.57333 82.633339 -475.59665 4281415477
393.33334 82.402214 -475.82443 4281809724
391.56558 83.660004 -475.3522 4283388246
392.59329 83.375 -475.70834 4282861902
393.35999 83.417778 -475.86111 4282861640
394.14999 83.744995 -475.95502 4282927687
390.98499 84.699997 -475.01001 4284310120
391.35141 84.52285 -475.18573 4284703335
392.5 84.362503 -475.63 4284308837
393.54999 84.425003 -475.8475 4284900451
394.23666 84.370003 -475.94669 4285030495
388.69498 85.603333 -475.07498 4284440417
389.49365 85.661812 -475.17459 4284638310
390.48318 85.609474 -475.19049 4284703338
391.31818 85.408195 -475.22723 4284637801
392.39572 85.537148 -475.53 4284834663
393.40601 85.508003 -475.77997 4284571747
394.32001 85.800003 -475.97 4284964961
388.73499 86.379997 -475.10001 4284900709
389.61429 86.538574 -475.2757 4284704101
390.37997 86.50428 -475.41431 4284703592
391.35669 86.556671 -475.47668 4284638057
392.496 86.496002 -475.66803 4284834663
393.375 86.57666 -475.86169 4284571746
394.45001 86.559998 -475.94199 4284964958
395.33749 86.610001 -475.98999 4285095515
388.655 87.315002 -475.08499 4284770152
389.51843 87.414001 -475.36926 4284770150
390.47125 87.563744 -475.47751 4284703847
391.5 87.477272 -475.49182 4284704104
392.62143 87.51857 -475.75143 4284834662
393.61713 87.645706 -475.83286 4284702818
394.39749 87.430008 -475.92996 4284964957
395.07001 87.150002 -475.95999 4284964442
388.50125 88.541245 -475.14124 4284967011
389.49667 88.514992 -475.3533 4284967011
390.48056 88.392113 -475.34952 4284901219
391.41571 88.537148 -475.39859 4284966757
392.71997 88.3825 -475.6875 4284769126
393.55185 88.359367 -475.7594 4284768866
394.16498 88.464996 -475.92001 4285031517
388.45819 89.365463 -475.0882 4285098082
389.54865 89.414093 -475.18274 4285032546
390.32281 89.487137 -475.16425 4285032546
391.35999 89.339996 -475.36749 4285098339
392.66998 89.214996 -475.64001 4284966244
393.64999 89.517509 -475.85251 4285361252
388.95001 90.139999 -475.01001 4284637275
389.39999 90.40667 -475.07666 4284308569
390.43997 90.196678 -475.23999 4284505947
391.48999 90.290001 -475.47 4284309082
392.42001 90.099998 -475.64999 4284638048
389.20001 91.32 -475.06 4284243293
390.465 91.315002 -475.33002 4284111962
391.81 91.449997 -475.62 4284506721
393.14001 91.150002 -475.87 4285493615
389.32999 92.900002 -475.17001 4283520593
390.76001 92.870003 -475.48999 4283981144
392.23999 93.019997 -475.81 4284901996
388.54999 94.589996 -475.07999 4282862925
389.78 94.800003 -475.39999 4283586645
391.26999 95.019997 -475.73999 4284441439
392.23999 95.879997 -475.98999 4285164911
387.44 96.660004 -475.01001 4281812036
388.67001 96.389999 -475.26999 4282926672
390.03 96.639999 -475.59 4283192141
391.25 96.910004 -475.85999 4283126601
386.73999 97.75 -475.04001 4281875775
387.505 97.705002 -475.16 4282401854
385.89999 98.760002 -475.04999 4281481777
386.54001 98.549995 -475.11331 4282072377
387.09 98.230003 -475.14999 4282403144
389.07001 98.07 -475.5 4282797393
390.23001 98.239998 -475.75 4283190345
391.41 98.379997 -475.98001 4282798420
385.625 99.494995 -475.05499 4282333750
386.42499 99.550003 -475.20999 4282400572
387.20001 99.520004 -475.31 4282598720
388.29999 99.32 -475.45999 4283125837
389.32999 99.550003 -475.67001 4284110921
390.41 99.669998 -475.89001 4283060560
385.48666 100.54 -475.10999 4282402629
386.37 100.515 -475.26501 4282599237
387.38501 100.495 -475.37 4282994766
388.51999 100.73 -475.60001 4284044120
385.46503 101.62 -475.1275 4282993225
386.56332 101.51666 -475.24667 4283322960
387.70999 101.24 -475.42999 4283455055
388.58002 101.755 -475.65002 4284636508
389.60001 101.01 -475.82999 4283453263
385.65399 102.43401 -475.09399 4282533443
386.40002 102.6375 -475.14752 4282927690
387.65665 102.40667 -475.38 4283520343
388.59 102.53001 -475.646 4283257933
389.306 102.71 -475.82196 4282927941
390 102.74 -476 4282993220
385.48499 103.5 -475.09 4282466882
386.45999 103.43667 -475.20999 4282598977
387.60999 103.46 -475.37 4282927176
388.44498 103.4325 -475.57501 4282992965
389.32498 103.47666 -475.81668 4282993479
385.53665 104.45333 -475.18335 4282664259
386.53 104.325 -475.29498 4282796105
387.57501 104.49 -475.44 4282795583
388.55334 104.44666 -475.63998 4282994510
389.39502 104.615 -475.88998 4282993997
384.76501 105.305 -475.05499 4282597950
385.45001 105.73 -475.19 4282139462
386.39999 105.5 -475.32001 4282334513
387.38748 105.4375 -475.47751 4282334524
388.50601 105.466 -475.716 4282928718
389.23499 105.42 -475.905 4283387978
384.60001 106.448 -475.10199 4282203452
385.39001 106.76 -475.22 4282529852
386.43573 106.67857 -475.32571 4282139202
387.60333 106.59666 -475.60999 4282597694
388.39999 106.498 -475.77402 4282467134
389.38501 106.325 -475.94501 4282795845
384.51501 107.30251 -475.095 4282860609
385.69 107.52 -475.27002 4283057995
386.49921 107.37154 -475.30457 4282598983
387.52002 107.54666 -475.48666 4283190087
388.36093 107.43909 -475.7009 4282992708
389.52499 107.57 -475.94 4283190086
384.72998 108.37 -475.13669 4283387978
385.33499 108.6775 -475.2825 4283321419
386.49997 108.37801 -475.38998 4282927943
387.48624 108.5 -475.42871 4283256394
388.41901 108.64101 -475.60596 4282796360
389.29498 108.5625 -475.84003 4282401857
384.63 109.32249 -475.1225 4282861892
385.51001 109.41429 -475.30859 4283125066
386.46335 109.49334 -475.45337 4283060041
387.49252 109.56165 -475.48331 4282993479
388.29333 109.43832 -475.60498 4283059020
389.36499 109.41 -475.92499 4282401599
384.47 110.47666 -475.09335 4282401090
385.70502 110.465 -475.37 4282402885
386.45999 110.495 -475.52252 4282664766
387.60443 110.53 -475.58557 4282795589
388.38004 110.54399 -475.72403 4282402114
389.26999 110.1 -475.95999 4282203959
384.57666 111.6 -475.1167 4282532154
385.47751 111.565 -475.36499 4282401856
386.49335 111.69111 -475.53113 4282597955
387.39374 111.53625 -475.64871 4282336064
388.45746 111.595 -475.82001 4283124550
389.03 111.455 -475.98999 4282466365
384.87 112.52 -475.17001 4282466108
385.67334 112.55666 -475.32333 4282204988
386.45248 112.42249 -475.40628 4282401087
387.57501 112.53375 -475.59625 4282401602
388.54834 112.52334 -475.88834 4282664778
384.4975 113.61251 -475.10999 4282797643
385.52252 113.5025 -475.3175 4282796613
386.63251 113.41251 -475.40997 4282862407
387.65143 113.37572 -475.6586 4283388494
388.41998 113.408 -475.91196 4283716693
383.875 114.665 -475.05499 4283981144
384.32251 114.595 -475.16 4284046681
385.38501 114.55 -475.34998 4284308832
386.51334 114.46334 -475.43335 4284046423
387.5 114.31 -475.65503 4284111960
388.46335 114.51 -475.93997 4283981148
383.61667 115.75668 -475.06665 4284111962
384.496 115.578 -475.22003 4284309340
385.27502 115.31 -475.315 4284375388
386.53665 115.64333 -475.46667 4284178268
387.564 115.40399 -475.68204 4284112221
388.49603 115.43201 -475.88998 4284243548
389.32999 115.49001 -475.98499 4284506976
383.58334 116.5 -475.07999 4284374617
384.37 116.4525 -475.20749 4284177236
385.44003 116.44999 -475.35669 4283520850
386.54001 116.28 -475.48999 4284046427
387.46747 116.4775 -475.6925 4284308827
388.36002 116.66333 -475.8967 4283914841
389.10999 116.23 -476 4284506720
384.51801 117.47001 -475.142 4282665544
385.20999 117.77 -475.28598 4282664516
386.5625 117.4025 -475.52249 4283388751
387.57751 117.5975 -475.7175 4283717465
388.47501 117.455 -475.91 4283849561
384.51248 118.3925 -475.08752 4282268730
385.46503 118.495 -475.28751 4282730568
386.56998 118.60333 -475.42001 4282927434
387.48499 118.595 -475.60001 4282929228
388.45001 118.325 -475.8475 4283651410
384.73499 119.13499 -475.07501 4282270271
385.57999 119.395 -475.17334 4282599236
386.40802 119.5 -475.31 4282796615
387.67499 119.425 -475.565 4283453003
388.51001 119.435 -475.75497 4282994509
389.16 119.44334 -475.91 4283321932
384.63 120.61 -475.01999 4282007096
385.655 120.205 -475.19 4282730050
386.34335 120.35 -475.34335 4282796619
387.46399 120.48199 -475.54599 4283125069
388.49332 120.44333 -475.73331 4282599494
389.39502 120.235 -475.92499 4282995022
384.70001 121.4 -475.09 4282796360
385.58334 121.44666 -475.26999 4283059529
386.55499 121.485 -475.45502 4283125579
387.32999 121.54 -475.57999 4283059787
388.58398 121.538 -475.82001 4282664772
389.29001 121.05 -475.95001 4282995278
383.745 122.62 -475.035 4283519056
384.46335 122.64667 -475.22 4283848021
385.37 122.6 -475.36499 4283584593
386.39999 122.44 -475.46667 4283058501
387.66248 122.455 -475.6925 4282599490
388.51669 122.57999 -475.87332 4282861126
382.53 123.59666 -475.04666 4283388494
383.65802 123.68001 -475.32999 4283781709
384.41003 123.585 -475.51099 4283651410
385.33145 123.51714 -475.60715 4283650638
386.625 123.55249 -475.70749 4283190602
387.47247 123.67751 -475.8725 4282795327
388.54663 123.26666 -475.95999 4282927688
381.79999 124.24 -475.01999 4283387719
382.57666 124.50333 -475.19669 4283452488
383.57251 124.42 -475.43002 4283125324
384.61667 124.59666 -475.64001 4283651153
385.5 124.53751 -475.72 4283519823
386.72498 124.57 -475.91501 4283124806
381.745 125.62 -475.07999 4283387728
382.625 125.56499 -475.34 4283454030
383.46664 125.55833 -475.53 4283387722
384.53799 125.4 -475.646 4283584845
385.60248 125.5825 -475.7775 4283058755
386.45499 125.4275 -475.90253 4282664770
381.94 126.585 -475.14502 4282928971
382.46667 126.42834 -475.31165 4283125066
383.5025 126.3675 -475.52875 4282796102
384.54333 126.53666 -475.64331 4282467391
385.46796 126.618 -475.78598 4282203964
386.29333 126.52 -475.95004 4282729026
381.94 127.14 -475.06 4282468162
382.49332 127.31 -475.15665 4282663742
383.34 127.53 -475.28 4282335547
384.37668 127.42333 -475.51334 4282532160
385.58835 127.41833 -475.7767 4282400053
386.55334 127.68833 -475.93665 4282072626
387.04001 127.8 -475.97 4282137653
382.72 128.19 -475.04001 4282072882
383.42667 128.62 -475.16333 4282203450
384.68335 128.42 -475.49667 4282270009
385.38 128.55 -475.64999 4282335299
386.56833 128.67833 -475.82999 4281940790
387.38779 128.4389 -475.92111 4281808690
383.64999 129.5 -475.14999 4282795333
384.54889 129.51111 -475.3678 4282400825
385.51855 129.47285 -475.62997 4281941304
386.53 129.54999 -475.85001 4281809720
387.31665 129.15334 -475.94003 4281546806
382.60999 130.64 -475.04001 4281811770
383.61002 130.41251 -475.1875 4282269497
384.57834 130.47166 -475.4017 4282334778
385.59 130.59125 -475.72375 4281744443
386.202 130.436 -475.89801 4282071607
382.49667 131.45667 -475.10001 4282072121
383.57333 131.44333 -475.36667 4281940021
384.54749 131.53751 -475.63751 4281875256
385.5675 131.52499 -475.92001 4282005807
381.71997 132.5 -475.02499 4281547577
382.42203 132.51201 -475.20401 4281677875
383.36252 132.46249 -475.46503 4281808697
384.59497 132.66501 -475.84164 4282136883
385.21002 132.42001 -475.92596 4282006838
380.6925 133.64999 -475.08002 4281940024
381.62 133.36 -475.19666 4281941048
382.50333 133.52667 -475.42667 4282006070
383.69501 133.57251 -475.69501 4282005549
384.40891 133.51334 -475.91107 4282137397
385.17499 133.60001 -476 4282333747
379.45001 134.5 -475.01001 4281413934
380.48599 134.54199 -475.138 4281940788
381.59998 134.38251 -475.35498 4281875252
382.66248 134.44749 -475.57751 4282137912
383.55402 134.59 -475.68198 4282137395
384.38251 134.5 -475.83749 4282268725
385.25 134.63 -475.94 4282136890
379.755 135.41 -475.06 4281939753
380.55002 135.5 -475.19666 4281940273
381.42334 135.51666 -475.3667 4281809719
382.48499 135.35001 -475.565 4282071600
383.6875 135.45001 -475.69501 4282137139
384.48401 135.34599 -475.79401 4282006071
385.23999 135.625 -475.905 4281940537
379.70999 136.565 -475.02002 4281873964
380.336 136.452 -475.14801 4282005297
381.38669 136.51001 -475.37668 4281808685
382.45251 136.4075 -475.5625 4281873968
383.68799 136.55399 -475.74399 4281940016
384.47501 136.49249 -475.84753 4281940017
385.04999 136.42 -475.91 4281874735
379.64334 137.62 -475.07999 4281940018
380.4675 137.3625 -475.21249 4281940532
381.53333 137.49333 -475.42334 4282006062
382.44998 137.43333 -475.55334 4282006068
383.39001 137.504 -475.70401 4281939759
384.57001 137.485 -475.9325 4281743665
379.56 138.78 -475.04001 4282334004
380.50333 138.59334 -475.20667 4281940273
381.3475 138.5125 -475.39249 4281940273
382.45801 138.478 -475.57202 4282071344
383.345 138.205 -475.69 4281940271
384.375 138.58501 -475.95001 4281874741
379.94 139.25 -475.07999 4281678132
380.61499 139.48 -475.22998 4282072117
381.72998 139.63 -475.52335 4282071090
382.55331 139.36667 -475.64664 4282005813
383.69003 139.58667 -475.86002 4282202423
384.10999 139.44 -475.95001 4281940017
379.595 140.46001 -475.035 4282136371
380.61398 140.54599 -475.23203 4281939505
381.39001 140.51501 -475.4375 4281612338
382.5 140.3775 -475.655 4281742895
383.51749 140.58249 -475.85751 4281940277
384.10001 140.87 -475.98999 4281612342
379.79999 141.42 -475.07999 4282201651
380.60141 141.47859 -475.19998 4281874738
381.504 141.612 -475.39999 4281743664
382.48169 141.37666 -475.625 4281873714
383.5 141.66 -475.82404 4281874740
384.32999 141.53999 -475.98001 4281677365
379.54999 142.02 -475.03 4281743151
380.52124 142.45625 -475.19122 4281808433
381.31998 142.56667 -475.31998 4281676589
382.435 142.465 -475.535 4281677619
383.40399 142.34201 -475.75601 4282333492
384.48273 142.45001 -475.90088 4282072370
385.14999 142.28999 -476 4281941043
379.81 143.91 -475.04001 4282005298
380.55499 143.56 -475.15997 4281874483
381.48599 143.524 -475.32599 4281940532
382.44501 143.62 -475.535 4282400316
383.56125 143.53874 -475.78125 4282268729
384.3075 143.38751 -475.9325 4282334778
379.89001 144.67999 -475.10001 4281809721
380.64999 144.56 -475.20999 4282072376
381.38669 144.40999 -475.34335 4282269498
382.64499 144.67499 -475.655 4282532156
383.59 144.50999 -475.88 4282138171
379.88 145.56 -475.07001 4281940786
380.384 145.62399 -475.17804 4281941045
381.52252 145.485 -475.39499 4282663229
382.57748 145.625 -475.6925 4282335289
383.42499 145.41 -475.91498 4282400573
379.715 146.48999 -475.04498 4281875255
380.40002 146.57666 -475.18997 4282006326
381.32001 146.59 -475.41 4282006835
382.33252 146.61501 -475.64001 4282203703
383.34747 146.55 -475.9075 4282532155
379.51144 147.54715 -475.08286 4282203961
380.54749 147.45749 -475.2825 4281941303
381.62601 147.47601 -475.52002 4282072632
382.41751 147.5325 -475.64252 4282138680
383.44165 147.45332 -475.80835 4282467391
384.36331 147.74001 -475.94336 4282467649
328.91336 148.85001 -475.19666 4283784015
329.33957 148.59045 -475.60007 4283914064
379.66498 148.41 -475.08002 4282335289
380.62 148.35001 -475.31 4281941814
381.5575 148.4575 -475.5275 4282073145
382.5025 148.53 -475.66248 4282203960
383.49332 148.48334 -475.72336 4282401846
384.40399 148.68399 -475.81601 4282401339
327.44278 149.63998 -475.51443 4284112471
328.45239 149.28763 -475.45905 4286609010
329.06201 149.16599 -475.83203 4283653202
379.70999 149.19 -475.04001 4282137914
380.35498 149.535 -475.19 4282071855
381.57001 149.52499 -475.47501 4282073143
382.68997 149.52667 -475.65665 4282465852
383.59253 149.4725 -475.73248 4282598205
384.39572 149.52286 -475.83286 4282335802
385.16 149.24001 -476 4282664246
320.86331 150.96333 -475.36667 4281544993
321.56116 150.79112 -475.44391 4281676335
322.50003 150.65001 -475.53668 4281480756
323.51334 150.52583 -475.46249 4282927430
324.43463 150.33534 -475.40466 4284963405
325.25 150.245 -475.5 4282401087
326.78 150.08 -475.87 4280229404
380.582 150.48999 -475.242 4282335544
381.59399 150.53201 -475.47202 4282335290
382.565 150.515 -475.63501 4282138683
383.49799 150.424 -475.784 4282532155
384.38251 150.495 -475.91751 4282006840
314.70502 151.98 -475.56 4281282348
315.53336 151.73499 -475.55667 4281216291
316.62427 151.4343 -475.51141 4282402367
317.35428 151.3457 -475.58145 4284111963
318.47833 151.27834 -475.45837 4282858810
319.54834 151.21553 -475.58328 4281414962
320.28113 151.1389 -475.57004 4281544489
379.98001 151.87 -475.10999 4282927165
380.52002 151.53 -475.25333 4282598460
381.40665 151.36668 -475.48999 4282532668
382.35669 151.50667 -475.68335 4282335548
383.42001 151.515 -475.81 4282400055
384.51001 151.55 -475.95999 4281874480
309.48499 152.92252 -475.39502 4281677616
310.496 152.82999 -475.44598 4281347880
311.45599 152.644 -475.392 4281282860
312.64502 152.39749 -475.46997 4281545519
313.46298 152.29202 -475.34302 4281546032
314.215 152.095 -475.28998 4281217823
379.75 152.59 -475.10999 4282862407
380.71997 152.48 -475.36667 4282861378
381.505 152.3775 -475.58749 4282598975
382.44751 152.52251 -475.78503 4282532410
383.49667 152.46001 -475.89331 4282072117
384.29999 152.54001 -475.97 4282072376
308.75 153.11 -475.25 4281743148
379.64999 153.61333 -475.13998 4282598975
380.504 153.48599 -475.34003 4282927425
381.55002 153.46667 -475.60336 4282861639
382.578 153.51999 -475.79599 4282401083
383.40601 153.51199 -475.88403 4282269754
384.22 153.7 -475.97 4282007868
379.67667 154.40999 -475.12332 4282599234
380.70004 154.57332 -475.33667 4282927684
381.60999 154.55 -475.53 4282403395
382.51334 154.42665 -475.69998 4282533699
383.73001 154.36 -475.88 4281811519
384.19501 154.66 -475.96002 4282665028
379.44 155.45999 -475.07001 4282993223
380.38669 155.50333 -475.25668 4282927944
381.72 155.31 -475.51001 4283124290
382.51334 155.71999 -475.63669 4282730820
383.435 155.42999 -475.80499 4282598982
384.38 155.53 -475.98999 4282533189
379.625 156.52499 -475.10498 4283321159
380.37668 156.49666 -475.26334 4283059530
381.49332 156.48 -475.47668 4283190345
382.42999 156.57001 -475.63 4282466875
383.505 156.595 -475.83002 4282073146
384.29001 156.22 -475.98999 4282727743
379.76001 157.36 -475.14001 4282600001
380.44336 157.52333 -475.2767 4283125066
381.73001 157.3 -475.51999 4282927686
382.62 157.3 -475.70001 4281875001
383.63 157.55 -475.91501 4282401338
378.95999 158.67 -475.03 4283388487
379.505 158.285 -475.10498 4283254850
380.53 158.60001 -475.33502 4282926913
381.48752 158.42 -475.54248 4282860865
382.68668 158.39999 -475.82333 4282728505
383.53 158.44 -475.98999 4282531641
378.72998 159.57001 -475.04999 4282598969
379.67749 159.42751 -475.23499 4282335292
380.54999 159.705 -475.45001 4282665022
381.41666 159.34999 -475.6467 4282927686
382.32001 159.30499 -475.86499 4283453516
378.94 160.57001 -475.07001 4282204222
379.65332 160.52666 -475.22336 4282203958
380.38669 160.46001 -475.41333 4282796612
381.56284 160.5 -475.66708 4283321156
382.26669 160.42 -475.84335 4282861377
378.6925 161.53 -475.07251 4282335290
379.6333 161.56 -475.18665 4281941300
380.58667 161.43001 -475.38663 4282400053
381.47 161.395 -475.60498 4282466621
382.43335 161.30667 -475.86667 4282465843
377.98001 162.66 -475.07999 4282794296
378.66333 162.67 -475.24332 4282466360
379.43878 162.42624 -475.30624 4282532152
380.28333 162.36 -475.41666 4282795329
381.69 162.53999 -475.73999 4282992707
382.56 162.47 -475.94 4282861632
377.84 163.44501 -475.06 4282400320
378.29666 163.42334 -475.19003 4282531903
379.22 163.32001 -475.39999 4281941558
380.04001 163.5 -475.52499 4282467646
381.06 163.44 -475.69 4282730812
382.37 163.505 -475.92999 4282598722
377.57001 164.33 -475.03 4282665286
378.48001 164.39 -475.25668 4282665283
379.51752 164.6225 -475.465 4282862142
380.34 164.7 -475.60001 4282796866
381.48999 164.50999 -475.80331 4282992961
382.26999 164.91 -475.95999 4282729792
377.85001 165.14999 -475.12 4283322705
378.5267 165.51332 -475.25668 4282927943
379.48749 165.625 -475.42999 4282598974
380.59799 165.478 -475.61401 4283453516
381.54999 165.61749 -475.75751 4282927426
382.435 165.67999 -475.91998 4282532413
377.79999 166.03999 -475.01999 4282928198
378.69 166.44875 -475.215 4282861633
379.37125 166.55501 -475.32004 4282006585
380.39664 166.50334 -475.56998 4281941044
381.45166 166.41667 -475.77335 4282598719
382.55502 166.59502 -475.92834 4282400312
377.54001 167.955 -475.07001 4281874482
378.44003 167.44833 -475.23169 4282007614
379.5043 167.49857 -475.45996 4281743413
380.50668 167.49667 -475.65833 4281677362
381.58798 167.29599 -475.84399 4281742893
382.52002 167.39751 -475.95248 4281677103
376.70999 168.55 -475.07001 4282203707
377.51334 168.66002 -475.14999 4281809206
378.64502 168.41251 -475.34503 4282072895
379.65002 168.56334 -475.56003 4281743414
380.50201 168.382 -475.72803 4281743410
381.61002 168.47667 -475.94998 4281874744
376.57001 169.45 -475.125 4282136632
377.55331 169.44 -475.19666 4282334008
378.47998 169.47716 -475.30145 4282072378
379.42999 169.69 -475.5 4281743419
380.51663 169.57001 -475.77002 4281479467
381.16998 169.5 -475.95502 4281480756
376.50751 170.4575 -475.13501 4281808179
377.29666 170.35333 -475.22998 4281940532
378.40002 170.47 -475.30499 4281611826
379.4975 170.4575 -475.56 4281349169
380.48666 170.76001 -475.80002 4281807157
381.22 170.495 -475.935 4281676848
376.47998 171.49666 -475.12668 4281678391
377.51712 171.48286 -475.23999 4281742642
378.52249 171.5425 -475.42001 4281545516
379.66751 171.5 -475.67499 4281546291
380.57251 171.55 -475.84 4281677360
381.19 171.25999 -475.94 4282071352
375.82001 172.61252 -475.04251 4283189572
376.58908 172.54364 -475.19638 4282533184
377.47086 172.46002 -475.25333 4282137655
378.53998 172.422 -475.47202 4281546036
379.76501 172.685 -475.71002 4281545519
380.43802 172.53801 -475.82999 4281546547
381.29001 172.28 -475.95999 4281612599
376.57251 173.44562 -475.17123 4282532156
377.30334 173.52556 -475.31335 4282728507
378.41998 173.50999 -475.56 4282400574
379.35336 173.40999 -475.74667 4282202163
380.18335 173.42 -475.92334 4281414188
376.73199 174.45401 -475.07001 4282138943
377.39142 174.47859 -475.26712 4282335551
378.60873 174.66249 -475.70752 4282533441
379.22601 174.438 -475.90399 4282795068
375.375 175.64499 -475.04498 4281548084
376.52664 175.645 -475.17496 4281809462
377.47003 175.43858 -475.36429 4281809978
378.51813 175.545 -475.69064 4282533445
379.3533 175.38499 -475.92587 4282795329
380.56 175.60199 -475.95401 4284768364
381.20001 175.70999 -475.995 4289378736
374.69501 176.52499 -475.03497 4281873971
375.60669 176.40332 -475.16333 4282006071
376.58429 176.62143 -475.24713 4282203704
377.48404 176.552 -475.34601 4281875512
378.56332 176.48999 -475.53665 4282862667
379.565 176.27499 -475.76501 4283783769
380.66 176.28999 -475.92001 4289045422
374.72501 177.715 -475.03 4281940792
375.495 177.4075 -475.14001 4282335034
376.582 177.64798 -475.21802 4282860599
377.36331 177.59001 -475.26001 4282006324
378.41998 177.62 -475.41 4283387982
379.31 177.33 -475.60999 4285888879
380.75 177.11 -475.92001 4284897358
375.595 178.11499 -475.06 4282597947
376.64502 178.565 -475.08502 4282729277
377.5267 178.48999 -475.20999 4282531897
378.95999 178.96001 -475.48999 4288132268
380.26999 178.31 -475.78 4283453790
377.41 179.44 -475.14999 4282533185
378.29001 179.48 -475.34 4284901220
381.04001 179.81 -475.92999 4294901502
375.06 180.87 -475.01001 4282401851
377.34 180.51001 -475.19998 4282533182
378.41 180.54999 -475.41998 4284900954
379.57001 180.35001 -475.64999 4286084212
374.845 181.625 -475.0975 4282335549
375.44751 181.6575 -475.0975 4282072116
376.565 181.265 -475.13501 4282137398
377.76001 181.64 -475.37 4282995017
378.64999 181.98 -475.56 4292271059
379.95001 181.81 -475.79999 4284575586
374.64001 182.5325 -475.08749 4282203965
375.40747 182.39749 -475.1225 4282203707
376.76001 182.46001 -475.23999 4282531899
377.88 182.85001 -475.45999 4282926144
374.6467 183.67 -475.08334 4282269238
375.40503 183.55499 -475.1575 4282532926
376.39999 183.5 -475.23331 4282664508
379.25 183.32001 -475.73999 4288905325
374.68286 184.55856 -475.19144 4282598719
375.44534 184.60306 -475.23383 4282794556
376.35715 184.59286 -475.24857 4282269751
377.78 184.03 -475.5 4283254334
378.54999 184.99001 -475.67999 4282466103
373.95999 185.14999 -475.07001 4282335289
374.58667 185.375 -475.23666 4282467134
375.43997 185.55666 -475.345 4282466360
376.61282 185.50427 -475.34857 4282597691
377.44003 185.52667 -475.49667 4282729533
373.82999 186.74001 -475.01001 4282466623
374.58502 186.3075 -475.23248 4282401082
375.64499 186.41251 -475.39001 4282335032
376.55624 186.5575 -475.48495 4282269494
377.47336 186.52834 -475.62833 4282466619
378.38501 186.495 -475.72998 4282597430
379.32001 186.25 -475.85001 4282335806
373.82001 187.21001 -475.01001 4282400825
374.36667 187.34001 -475.12332 4282400826
375.48376 187.67375 -475.31253 4282400571
376.59995 187.452 -475.63467 4282006839
377.37076 187.4877 -475.7923 4282137400
378.31 187.45999 -475.79498 4282204218
379.57501 187.47 -475.91498 4282466628
373.81 188.435 -475.07001 4282664251
374.66797 188.44 -475.142 4282662971
375.4675 188.51375 -475.18622 4282400572
376.52124 188.50002 -475.46249 4282203704
377.32999 188.3689 -475.71225 4282203187
378.44333 188.52333 -475.81335 4282137654
379.26572 188.64285 -475.92572 4282137401
373.76501 189.47 -475.07501 4282729787
374.52399 189.39801 -475.12802 4282663745
375.54816 189.42729 -475.08914 4282072633
376.36401 189.436 -475.23599 4282269498
377.51602 189.39799 -475.57599 4282401593
378.59778 189.56 -475.79672 4282138169
379.39999 189.70601 -475.952 4282072118
380.22 189.91 -475.98999 4281940527
374.48199 190.45999 -475.04999 4282728506
375.466 190.466 -475.03204 4282466621
376.23752 190.455 -475.10999 4282531899
377.67996 190.59666 -475.45667 4282400568
378.56 190.36801 -475.62402 4282400825
379.54849 190.47299 -475.73349 4282137396
380.50287 190.43214 -475.89288 4282006067
374.81665 191.56667 -475.03 4282532412
375.50702 191.48399 -475.05899 4282729274
376.46625 191.41002 -475.2175 4282597947
377.405 191.58501 -475.43332 4282137651
378.47601 191.472 -475.57001 4282137908
379.58499 191.46999 -475.66748 4282203191
380.43332 191.29222 -475.82443 4282006068
374.79001 192.16 -475.04001 4282728759
375.46249 192.44998 -475.11749 4282401337
376.39001 192.57001 -475.245 4282466614
377.40399 192.39799 -475.41602 4282335544
378.65665 192.37 -475.64664 4282334260
379.45502 192.485 -475.75751 4282137910
380.30499 192.54999 -475.92499 4282334520
375.35999 193.44501 -475.04498 4282531894
376.496 193.50601 -475.29199 4282072118
377.51001 193.5675 -475.54001 4282334773
378.15002 193.52666 -475.68002 4282203442
379.3967 193.42668 -475.84668 4282269236
380.12 193.50999 -475.95999 4282203704
375.5 194.66667 -475.16833 4281874478
376.50876 194.47 -475.435 4281940270
377.43332 194.56 -475.68002 4282137138
378.45401 194.53 -475.84198 4282137393
379.42999 194.7075 -475.92999 4282072114
380.23999 194.16 -476 4282072373
375.66333 195.44666 -475.17001 4282005291
376.64001 195.46332 -475.37891 4281808942
377.54626 195.37999 -475.65372 4281940015
378.44998 195.42332 -475.83112 4282005553
379.51999 195.435 -475.94754 4281940272
380.12 195.00999 -476 4282334522
375.67999 196.39999 -475.06 4281807918
376.49857 196.49715 -475.25146 4281808687
377.49667 196.36833 -475.44669 4281742380
378.53857 196.58571 -475.62717 4281809203
379.32401 196.44002 -475.802 4282005294
380.125 196.37 -475.95502 4281546543
375.79001 197.39 -475.05499 4281413929
376.45166 197.46999 -475.23499 4281610538
377.48001 197.39667 -475.42664 4281676840
378.47501 197.50699 -475.51401 4281939761
379.35001 197.41251 -475.73999 4281808171
380.04001 197.16 -475.94 4282398002
375.58002 198.83 -475.03 4281478443
376.5014 198.55574 -475.23856 4281545002
377.47253 198.5675 -475.38498 4281479214
378.57114 198.4211 -475.52112 4281545256
379.33145 198.53572 -475.79715 4281676588
375.69821 199.55182 -475.12637 4281676332
