# .PCD v0.7 - Point Cloud Data file format
VERSION 0.7
FIELDS x y z rgba
SIZE 4 4 4 4
TYPE F F F U
COUNT 1 1 1 1
WIDTH 1174
HEIGHT 1
VIEWPOINT 0 0 0 1 0 0 0
POINTS 1174
DATA ascii
150.44749 -17.782501 -412.72751 4283579180
151.61858 -17.735714 -412.63004 4283907893
152.66667 -17.703333 -412.71167 4284106039
153.51401 -17.751999 -412.68399 4284435258
154.44333 -17.763332 -412.73837 4284698946
155.49333 -17.825001 -412.59 4285094476
156.465 -17.7875 -412.45752 4285818460
157.37833 -17.65 -412.67001 4286016864
158.33 -17.635 -412.52252 4287397237
159.50667 -17.633333 -412.42334 4287859324
160.62001 -17.523333 -412.70667 4287925891
161.58667 -17.730001 -412.39664 4287661430
162.32001 -17.785 -412.35498 4287202682
163.54999 -17.715 -412.53503 4287399286
164.64667 -17.696669 -412.56665 4287332977
165.685 -17.720001 -412.53 4287069302
166.5975 -17.7875 -412.4375 4287003757
167.35333 -17.746666 -412.51663 4287201394
168.39667 -17.806667 -412.50668 4287202418
169.56334 -17.780001 -412.77332 4287332726
170.39999 -17.99 -412.57999 4287333244
235.69347 -141.59175 -411.4491 4279635982
185.67749 -99.025002 -411.05499 4278781957
185.80571 -98.950005 -411.07144 4278518787
186.30797 -97.441353 -411.18933 4278979082
185.94501 -96.203331 -411.49832 4278190080
186.12241 -96.501526 -411.61429 4278518787
186.14534 -95.856667 -411.46701 4278190080
191.69 -93.393333 -411.28 4281548087
192.2265 -93.493507 -411.75699 4282072124
191.68001 -92.557999 -411.32599 4281744955
192.37498 -92.443565 -411.79568 4282006843
191.33 -91.516663 -411.31003 4282137654
192.21333 -91.463326 -411.84668 4282072377
190.38 -90.535004 -411.20001 4282072375
189.53201 -89.535995 -411.23602 4282071605
190.48999 -89.636665 -411.66333 4282006841
188.61499 -88.620003 -411.20001 4281743915
189.38499 -88.517502 -411.63498 4281874481
187.5 -87.790001 -411.04001 4280425761
188.34 -87.760002 -411.48999 4280163610
189.12 -87.510002 -411.98999 4281150500
186.765 -86.184998 -411.33502 4280490004
187.54668 -86.706665 -411.53 4280032023
185.85002 -85.423332 -411.17334 4280096530
186.50429 -85.371422 -411.50571 4280162584
187.14999 -85.57 -411.79999 4280161813
185.79251 -84.660004 -411.315 4279965459
186.28445 -84.661102 -411.68445 4280162070
178.95 -50.130001 -411.97 4280623119
179.38 -50.060001 -411.78 4280951834
180.76001 -50.145 -411.69501 4281082904
181.55751 -50.174999 -411.42999 4280359185
182.532 -50.327999 -411.40201 4280558625
183.47701 -50.472004 -411.47397 4282004778
184.32286 -50.488567 -411.56143 4281347353
185.47 -50.497501 -411.56 4280952090
186.59001 -50.424286 -411.46573 4280952092
187.47285 -50.546429 -411.44571 4281612851
188.4747 -50.654114 -411.48999 4281215262
189.50061 -50.638126 -411.52249 4280690211
190.51938 -50.668121 -411.56815 4282597957
191.34401 -50.512001 -411.54199 4282203704
192.6075 -50.4175 -411.46249 4281216804
193.464 -50.515999 -411.54401 4282008635
194.59428 -50.417141 -411.41141 4281479467
195.39583 -50.362503 -411.3475 4282004527
196.60214 -50.362854 -411.38785 4281741604
197.46053 -50.486313 -411.61368 4281873709
198.35924 -50.363079 -411.65384 4282464043
199.19 -50.233334 -411.78665 4282067994
200.09 -50.049999 -411.85999 4281742376
171.67 -49.009998 -411.54999 4280885524
172.45999 -49.16 -411.715 4281345044
173.56 -49.271999 -411.54599 4280359957
174.45401 -49.427998 -411.63199 4280623639
175.3875 -49.59 -411.66748 4280622609
176.53999 -49.695 -411.47751 4281213976
177.5275 -49.82 -411.51624 4281214227
178.56601 -49.878002 -411.36597 4280360467
179.63666 -49.903336 -411.30997 4281019183
180.28999 -49.919998 -411.14001 4282527003
197.536 -49.894001 -411.09198 4281742641
198.49249 -49.737503 -411.21503 4282792493
199.51666 -49.569996 -411.30997 4282069801
200.45 -49.657501 -411.58499 4282136880
201.44249 -49.455002 -411.655 4281151791
202.575 -49.34 -411.66165 4282992969
203.46555 -49.34444 -411.65662 4282399541
204.60274 -49.380905 -411.8009 4281545778
205.41667 -49.170002 -411.86667 4282665548
167.625 -48.1675 -411.5275 4280755227
168.345 -48.290001 -411.62 4280885535
169.526 -48.498001 -411.51801 4281082395
170.42001 -48.730003 -411.46298 4280754459
171.35999 -48.903332 -411.36667 4280622097
172.19 -48.990002 -411.23999 4280426523
200.59 -48.98 -411.07999 4283186233
201.89 -48.720001 -411.16 4282795079
202.625 -48.599998 -411.15002 4282467905
203.3725 -48.519997 -411.15503 4281942077
204.55 -48.576664 -411.26834 4282136622
205.43222 -48.518887 -411.41779 4281347110
206.43286 -48.490002 -411.66998 4281808182
207.554 -48.43 -411.84799 4281872935
208.25334 -48.213333 -411.88 4281346852
163.45 -47.278748 -411.51999 4280819988
164.564 -47.629997 -411.48398 4280886047
165.36501 -47.767502 -411.24249 4280820244
166.5 -47.939999 -411.25 4280820246
205.71001 -47.885002 -411.14502 4281017893
206.52251 -47.602501 -411.27002 4281479725
207.50285 -47.470001 -411.46854 4281282089
208.49666 -47.583332 -411.77335 4281281060
209.11499 -47.474998 -411.91998 4281412392
206.64999 -46.790001 -411.06 4281477668
207.61749 -46.535 -411.27499 4280558364
208.48999 -46.439999 -411.54752 4280952608
209.45499 -46.412498 -411.84 4281215522
207.8 -45.506668 -411.17334 4280755224
208.35251 -45.557503 -411.38 4281213981
209.41599 -45.573997 -411.702 4280493339
210.02 -45.209999 -411.82999 4280032022
208.68802 -44.439999 -411.20801 4280951317
209.38998 -44.371429 -411.41855 4280163094
210.35501 -44.397499 -411.83749 4280820504
208.89999 -43.715 -411.12 4280887077
209.46001 -43.508888 -411.3367 4280754971
210.53 -43.565552 -411.81775 4280754201
211.08 -43.314999 -411.97498 4280292886
209.59332 -42.581665 -411.23499 4280754457
210.49284 -42.596432 -411.55145 4280819997
211.255 -42.661667 -411.83829 4280556571
209.61333 -41.593334 -411.05664 4281149220
210.54199 -41.371998 -411.31201 4280491034
211.48334 -41.370003 -411.68503 4280426516
209.92499 -40.540001 -411.03 4280623895
210.59999 -40.5625 -411.2475 4280557336
211.51714 -40.487144 -411.59146 4280425749
212.21001 -40.579998 -411.86337 4280162580
209.89 -39.220001 -411.04999 4281150505
210.45 -39.445004 -411.19498 4280887070
211.45999 -39.41 -411.52753 4280623380
212.45999 -39.375 -411.875 4280688925
209.88 -38.549999 -411.12 4281215264
210.53667 -38.443333 -411.33334 4281280542
211.58249 -38.510002 -411.64001 4280951831
212.33 -38.509998 -411.85999 4281148697
209.345 -37.455002 -411.10498 4281280030
210.38998 -37.425999 -411.452 4281017111
211.26001 -37.350002 -411.71667 4280951320
212.14499 -37.560001 -411.92999 4280623380
208.875 -36.370003 -411.14999 4280952095
209.69751 -36.525002 -411.39999 4281279257
210.48799 -36.512001 -411.66803 4280886302
211.48 -36.700001 -411.91 4280819732
207.62 -35.154999 -411.07501 4281542166
208.40999 -35.646667 -411.18002 4281345822
209.20999 -35.285 -411.54498 4280887326
210.392 -35.655998 -411.84198 4281346075
207.62891 -34.474442 -411.2522 4281148445
208.548 -34.444 -411.57202 4281478688
209.44501 -34.705002 -411.79498 4281346844
206.47501 -33.57 -411.10748 4282398509
207.50334 -33.419998 -411.50668 4281282598
208.36334 -33.656666 -411.74667 4281610534
209.27 -33.950001 -411.98001 4282069026
204.53999 -32.209999 -411.01999 4282002969
205.36 -32.439999 -411.17999 4283055411
206.39333 -32.736668 -411.39331 4282069554
207.02 -32.34 -411.76001 4280757027
208.17999 -32.91 -411.94 4282268208
202.73 -31.030001 -411.10001 4282466864
203.55 -31.334999 -411.17499 4283583544
204.57143 -31.618574 -411.3186 4282268212
205.495 -31.725 -411.565 4282926388
206.345 -31.57 -411.90997 4282597682
201.50999 -30.129999 -411.09 4283319331
202.43666 -30.643333 -411.17334 4283386683
203.40401 -30.576 -411.48798 4283452477
204.28333 -30.686666 -411.69666 4283451707
201.44167 -29.591667 -411.29333 4282990380
202.42334 -29.643333 -411.60999 4283780152
203.39 -29.68 -411.89001 4283319604
198.715 -28.264999 -411.07999 4284307267
199.36334 -28.389999 -411.20667 4284306242
200.56 -28.336668 -411.60999 4283582523
201.595 -28.625 -411.83502 4283452481
202.42999 -28.969999 -411.94 4283847236
197.48999 -27.309999 -411.22247 4283846726
198.64499 -27.559999 -411.47504 4284439367
199.40201 -27.694 -411.638 4284108864
200.19 -27.549999 -411.97 4283582531
195.64499 -26.145 -411.39001 4285819227
196.63335 -26.563334 -411.41333 4284768073
197.556 -26.556 -411.75 4285227860
198.29501 -26.84 -411.81 4284700746
192.66501 -25.200001 -411.14499 4286081109
193.73999 -25.43 -411.32999 4286016864
194.552 -25.572001 -411.508 4286607708
195.59999 -25.663332 -411.80334 4286543454
196.5 -25.879999 -411.88 4285885020
190.40999 -24.15 -411.28003 4288123517
191.59554 -24.461111 -411.48444 4287529075
192.39336 -24.488333 -411.74832 4287726712
193.54501 -24.85 -411.80499 4287202671
186.99001 -23.110001 -411.22 4287660397
187.765 -23.200001 -411.375 4286605149
188.44374 -23.317499 -411.41 4285882697
189.57401 -23.453999 -411.59799 4287991927
190.30333 -23.719999 -411.66 4288123000
191.11 -23.91 -411.87 4288319105
183.25 -22.01 -411.01001 4286148186
184.39999 -22.35 -411.04999 4287395948
185.63 -22.450003 -411.37332 4287462241
186.44 -22.629999 -411.48001 4287592016
187.32001 -22.66 -411.73999 4287792753
188.52333 -22.853333 -411.93997 4284239938
180.98 -21.059999 -411.17999 4287002970
181.58 -21.305 -411.11499 4287790432
182.54752 -21.327499 -411.43253 4287066978
183.46667 -21.590002 -411.48666 4286870618
184.395 -21.605 -411.77502 4286871907
185.31 -21.77 -411.92001 4287132509
176.96001 -20.25 -411.14001 4287201127
177.63332 -20.223333 -411.36331 4287794279
178.505 -20.334999 -411.44501 4288185969
179.51001 -20.416666 -411.60669 4287332202
180.53833 -20.566668 -411.6517 4287266155
181.46667 -20.683334 -411.74332 4287266152
182.50999 -20.74 -412 4287135076
136.74818 -19.09091 -411.65909 4281676072
137.51904 -19.249525 -411.44098 4281543454
138.42 -19.357779 -411.6322 4281937184
139.49263 -19.360001 -411.52875 4282397217
140.49382 -19.219522 -411.49908 4282660135
141.44524 -19.16 -411.61432 4282791716
142.46832 -19.139999 -411.45834 4283514930
143.44 -19.095835 -411.4458 4283712825
144.39101 -19.089001 -411.53094 4283909944
145.54999 -19.114447 -411.44107 4284304959
146.2993 -19.060717 -411.4736 4284502339
172.75667 -19.186666 -411.31332 4287003756
173.49001 -19.279999 -411.37753 4287398247
174.50699 -19.445999 -411.41602 4288121205
175.72751 -19.6325 -411.54248 4287464046
176.53667 -19.813334 -411.61331 4287464047
177.74001 -19.780001 -411.98001 4287596140
131.56001 -18.184286 -411.19998 4282399282
132.47937 -18.305626 -411.43622 4282530097
133.5094 -18.350588 -411.56409 4282464561
134.48532 -18.484669 -411.54602 4282070313
135.5163 -18.778517 -411.4808 4281675813
136.245 -18.959999 -411.66 4282266920
143.56334 -18.966667 -411.89331 4283185446
144.604 -18.938 -411.90997 4283513903
145.08 -18.959999 -411.97 4283317547
146.76001 -19 -411.46997 4284173375
147.575 -18.940557 -411.54611 4284239168
148.42055 -18.848888 -411.61502 4284304706
149.46251 -18.719584 -411.51334 4284436546
150.44707 -18.587648 -411.43884 4284568132
151.54263 -18.447893 -411.50629 4284634181
152.50572 -18.440952 -411.49573 4284831044
153.5 -18.434546 -411.51273 4284898129
154.4491 -18.410908 -411.47003 4285161555
155.5575 -18.348751 -411.38876 4285886306
156.62 -18.210001 -411.44751 4286806639
157.765 -18.255001 -411.19 4287200621
158.40001 -18.164999 -411.34 4287332469
159.3775 -18.215 -411.22501 4287267443
160.34334 -18.156668 -411.39664 4287530360
161.53334 -18.190001 -411.43335 4286938222
162.61499 -18.195 -411.435 4286873202
163.53 -18.18 -411.48001 4286938476
164.49001 -18.216665 -411.29996 4287135600
165.33499 -18.17 -411.41498 4287071091
166.28 -18.17 -411.48001 4287265647
167.54333 -18.226667 -411.51001 4287135342
168.57834 -18.440001 -411.37833 4287399027
169.43999 -18.534 -411.39398 4287529847
170.39499 -18.545 -411.58002 4287596664
171.5 -18.843334 -411.42334 4287990136
172.44 -18.810001 -411.845 4287530352
157.71001 -17.940001 -411.85001 4286676338
158.565 -17.884998 -411.87 4287595642
159.28999 -17.959999 -411.72 4287662204
160.66 -17.9 -411.98001 4287860610
161.2 -17.99 -411.85001 4287924347
165.78999 -17.959999 -411.94 4287002729
215.69453 -121.38091 -410.15274 4280227091
185.19334 -99.417503 -410.84586 4278584580
185.57401 -98.943008 -410.93301 4278913287
186.36667 -97.81778 -410.97223 4278847752
186.33191 -95.65667 -410.6933 4278190080
190.59668 -93.28833 -410.49332 4282006071
191.13 -93.509995 -410.87402 4282071612
189.675 -92.494995 -410.08499 4282006068
190.50835 -92.559998 -410.56335 4281874993
191.03999 -92.940002 -410.85999 4282007097
189.51999 -91.512497 -410.375 4282072381
190.32501 -91.474998 -410.77502 4282007356
187.86 -90.150002 -410.10999 4280822822
188.48668 -90.553337 -410.23999 4282072116
189.47501 -90.464996 -410.79501 4282007094
190.19 -90.949997 -410.92999 4281744956
187.68333 -89.610008 -410.28665 4280625950
188.39001 -89.434006 -410.70401 4281546289
186.51144 -88.278572 -410.27573 4280294941
187.465 -88.639999 -410.63501 4280294679
185.85501 -87.514999 -410.26501 4280558625
186.47833 -87.528328 -410.60168 4280295197
184.545 -86.190002 -410.17999 4280492060
185.3757 -86.497139 -410.48712 4280623645
186.25334 -86.613335 -410.91 4280426526
184.48082 -85.470802 -410.43845 4279965459
185.25 -85.67334 -410.82333 4280491033
181.57001 -83.422501 -410.065 4280885530
182.59749 -83.365509 -410.20499 4280885532
181.72052 -82.640526 -410.24158 4280885272
181.80249 -81.702499 -410.54749 4280951062
182.50667 -50.076664 -410.68002 4280819732
183.44334 -50.116669 -410.68997 4280031761
184.65141 -50.154285 -410.65717 4281217075
185.25444 -50.162224 -410.62335 4282071603
186.67599 -50.144001 -410.64404 4280755486
187.53729 -50.261818 -410.73175 4281611824
188.3275 -50.2425 -410.79498 4281744180
189.45332 -50.223331 -410.93668 4281017888
190.41501 -50.09 -410.85498 4281874215
192.33499 -50.025002 -410.83502 4281610026
193.46999 -50.053333 -410.73999 4280756767
194.41998 -50.08889 -410.80444 4280757545
195.325 -50.079998 -410.88998 4282399281
196.185 -50.055 -411 4282267946
172.88 -49.029999 -411 4280622885
173.71333 -49.119995 -410.76999 4280163094
174.41 -49.145996 -410.51596 4280754713
175.48 -49.259998 -410.48499 4280490769
176.55499 -49.490002 -410.67999 4281082650
177.57501 -49.57 -410.54001 4281609247
178.6275 -49.657497 -410.58249 4280425488
179.436 -49.696003 -410.52597 4279703571
180.47556 -49.83556 -410.5011 4281742122
181.54251 -49.901253 -410.29626 4281413148
182.39751 -49.932503 -410.23248 4281147414
183.52333 -49.91 -410.18335 4280228886
184.59 -49.935001 -410.13251 4281743417
185.42999 -49.866669 -410.14999 4282531122
186.62 -49.869999 -410.18002 4281280807
187.66501 -49.84 -410.13501 4281345566
188.3775 -49.845001 -410.29999 4280822564
189.435 -49.82 -410.41501 4281480243
190.31665 -49.693333 -410.30997 4281477917
191.47716 -49.737144 -410.42142 4280954408
192.52399 -49.686001 -410.25601 4282467398
193.53386 -49.756924 -410.3277 4281806625
194.42116 -49.730595 -410.41769 4281283636
195.52 -49.691822 -410.57639 4282598982
196.44202 -49.743004 -410.79303 4282005034
197.4525 -49.482498 -410.82751 4281545518
198.42999 -49.196667 -410.85001 4280887069
167.64 -48.029999 -410.85001 4280427280
168.72501 -48.135002 -410.60999 4280558625
169.53 -48.239998 -410.47501 4281215005
170.57602 -48.411999 -410.37799 4280820246
171.5 -48.641666 -410.60831 4280950301
172.44998 -48.732002 -410.42197 4280884760
173.42334 -48.926666 -410.29333 4280424731
195.62 -48.970001 -410.07001 4282732354
196.38332 -48.863331 -410.16666 4282269247
197.69334 -48.619999 -410.32666 4282004783
198.60498 -48.4375 -410.35001 4281874738
199.575 -48.477501 -410.53 4282862417
200.42 -48.392498 -410.63 4282862927
201.34 -48.43 -410.84 4282006834
202 -48.080002 -410.73001 4281938983
204.51999 -48.099998 -410.97498 4281743408
162.5825 -47.017498 -410.6925 4281541149
163.38499 -47.113331 -410.4783 4280885522
164.38 -47.287502 -410.315 4280885782
165.51665 -47.598331 -410.57004 4281082131
166.52251 -47.744999 -410.44998 4281212945
167.34 -47.919998 -410.60498 4280754966
168.07001 -48 -410.42999 4280164112
199.25 -48 -410.12 4281940788
200.47667 -47.694996 -410.19003 4281480497
201.48201 -47.442001 -410.23199 4282203194
202.52 -47.485001 -410.48166 4281019172
203.595 -47.513752 -410.67126 4281349165
204.59166 -47.601665 -410.79001 4282005038
205.36601 -47.444004 -410.88998 4281543715
161.825 -46.720001 -410.25 4280164379
162.51428 -46.939999 -410.26855 4281345050
202.60251 -46.787498 -410.215 4280886562
203.52126 -46.449997 -410.27124 4281347620
204.42168 -46.361664 -410.32166 4280688663
205.616 -46.531998 -410.65802 4281018662
206.22 -46.5 -410.85001 4281544220
203.575 -45.895 -410.035 4281543970
204.5 -45.674282 -410.10287 4280294935
205.34286 -45.512859 -410.26715 4280821537
206.502 -45.490002 -410.70801 4281150503
207.245 -45.305 -410.95001 4281411868
205.452 -44.737999 -410.17203 4281345564
206.51999 -44.433746 -410.48624 4280098333
207.354 -44.400002 -410.79999 4280623905
205.75 -43.485001 -410.06 4280820760
206.42833 -43.46167 -410.27332 4280163348
207.49001 -43.494999 -410.64999 4280952610
208.39749 -43.4375 -410.93497 4280688921
206.46249 -42.6175 -410.14499 4280689179
207.43501 -42.412498 -410.45502 4281017631
208.52667 -42.323334 -410.80997 4279769107
206.785 -41.540001 -410.11499 4281214486
207.32666 -41.433334 -410.30331 4281148954
208.465 -41.610001 -410.70502 4280688403
209.32001 -41.290001 -410.94 4280755999
206.82001 -40.77 -410.06 4281346844
207.49399 -40.396 -410.28204 4281017885
208.58667 -40.689999 -410.67001 4281016598
209.4325 -40.422501 -410.88748 4280951830
207.41998 -39.364998 -410.25751 4281017890
208.71333 -39.543335 -410.68335 4281279767
209.47 -39.5 -410.89999 4281345307
207.47998 -38.413754 -410.33499 4280886812
208.5275 -38.405003 -410.7175 4280492312
209.375 -38.634998 -410.965 4281017372
205.97 -37.099998 -410.01001 4280753943
206.655 -37.260002 -410.17499 4280754968
207.5775 -37.627499 -410.45248 4280819737
208.355 -37.420002 -410.77249 4280753689
205.645 -36.364998 -410.09253 4280689693
206.47 -36.525002 -410.29752 4280359957
207.50249 -36.369999 -410.66498 4281083163
208.25999 -36.514999 -410.90002 4280951324
205.32999 -35.465 -410.19 4281477658
206.56599 -35.535999 -410.586 4280623389
207.47501 -35.692497 -410.85498 4280820766
204.4875 -34.412498 -410.17001 4281740838
205.576 -34.433998 -410.53204 4281806372
206.36624 -34.517502 -410.81372 4281741099
202.70335 -33.206665 -410.09335 4281216547
203.51666 -33.523331 -410.14999 4281281572
204.51666 -33.720001 -410.40665 4281873190
205.5425 -33.549999 -410.80252 4282201902
201.56 -32.474998 -410.14001 4283384371
202.62 -32.636669 -410.36832 4282202416
203.46199 -32.546001 -410.58798 4282202413
204.62 -32.790001 -410.79001 4282791975
205.49001 -33 -410.98999 4282531128
200.65834 -31.430002 -410.21167 4282201893
201.4375 -31.525 -410.47748 4282860341
202.48999 -31.585999 -410.802 4282991157
203.59 -31.9 -410.91 4282793271
199.32999 -30.400002 -410.10999 4283121709
200.5975 -30.530001 -410.54749 4281874476
201.3325 -30.537502 -410.83752 4283254323
202.03999 -30.9 -410.95001 4283582780
197.64999 -29.25 -410.09 4284371522
198.32001 -29.43 -410.20667 4283780671
199.47667 -29.333334 -410.68335 4283386681
200.62 -29.639999 -410.94 4283581498
195.91 -28.370001 -410.01001 4283321144
196.54668 -28.269999 -410.30002 4284306499
197.45749 -28.552502 -410.44501 4283845174
198.41751 -28.527498 -410.79749 4284108861
194.66501 -27.380001 -410.10999 4284634943
195.56 -27.513334 -410.37332 4284833357
196.53 -27.5875 -410.70001 4284701513
192.64 -26.18 -410.25 4285886040
193.61751 -26.42 -410.42252 4285030479
194.595 -26.584999 -410.64001 4285294166
195.35501 -26.860001 -410.72498 4285029965
189.88 -25.34 -410.07999 4286674774
190.41 -25.299999 -410.28 4285423458
191.47667 -25.416666 -410.52335 4285818712
192.64 -25.59 -410.76501 4286478951
193.23334 -25.756668 -410.84 4285293397
186.60001 -24.040001 -410.22 4285226578
187.49666 -24.253334 -410.29663 4287265381
188.50502 -24.411247 -410.375 4287069033
189.44 -24.605001 -410.48001 4285492066
190.27 -24.720001 -410.715 4286545521
184.75999 -23.48 -410.06 4288645746
185.77 -23.313334 -410.57999 4287923301
186.3575 -23.577499 -410.55753 4286740585
187.56 -23.779999 -410.755 4287596146
188.42665 -23.826668 -410.87 4287794042
189.21001 -23.93 -410.94 4287595112
180.87 -22.07 -410.13 4287263582
181.60751 -22.2575 -410.19751 4287197266
182.63501 -22.405001 -410.41501 4286475861
183.485 -22.645 -410.45502 4287396708
184.515 -22.895 -410.54999 4287660141
185.50999 -22.780001 -411 4287199584
177.39499 -21.09 -410.21503 4288317812
178.22667 -21.163332 -410.38669 4288055929
179.47 -21.549999 -410.25 4287726197
180.52 -21.554287 -410.54001 4287593578
181.394 -21.762001 -410.60602 4287000664
182.33 -21.93 -410.79001 4286935389
173.60501 -20.115 -410.13 4287398244
174.5 -20.32 -410.14664 4287136621
175.51799 -20.378 -410.37201 4287266410
176.40167 -20.558334 -410.47498 4287595625
177.52 -20.76 -410.67667 4288056703
178.53999 -20.83 -410.87 4287596139
179.36 -20.940001 -410.92999 4288120690
136.81 -19.065001 -410.60001 4281740835
137.48808 -19.270769 -410.53033 4282528806
138.575 -19.350714 -410.36719 4283318575
139.51437 -19.303749 -410.59192 4283450935
140.46001 -19.209373 -410.66748 4283779128
141.48001 -19.131111 -410.70551 4284173637
142.36 -19.093334 -410.74585 4284306246
143.34 -19.076666 -410.84335 4284634186
144.707 -19.063 -410.80698 4284635211
145.39999 -19.046 -410.84198 4284700752
146.39 -19.01 -411 4284569420
168.33 -19.09 -410.04999 4287596149
169.23 -19.125 -410.26001 4288253566
170.52 -19.286667 -410.38333 4287465082
171.55501 -19.421667 -410.51331 4287595637
172.57201 -19.65 -410.5 4287135598
173.59201 -19.66 -410.79199 4287595630
174.405 -19.84 -410.76001 4288317048
175.38 -19.98 -410.84 4286940016
130.64749 -18.182499 -410.45905 4281609767
131.49385 -18.416922 -410.60385 4281413668
132.50092 -18.515455 -410.48633 4281281058
133.46901 -18.468 -410.67496 4280952607
134.46001 -18.493332 -410.6333 4281345822
135.57813 -18.633749 -410.61807 4280690202
136.3443 -18.874287 -410.36572 4281609502
141.89999 -18.870001 -410.12 4284701267
142.495 -18.904999 -410.21503 4284767058
143.72 -18.92 -410.30667 4284832341
144.66333 -18.906668 -410.28665 4284702293
145.43999 -18.934 -410.43399 4284570194
146.59799 -18.892 -410.48599 4284832081
147.54715 -18.905714 -410.70999 4284437577
148.43143 -18.867144 -410.62997 4284569679
149.5 -18.781 -410.66202 4284897614
150.51111 -18.67111 -410.43777 4284701262
151.49445 -18.644445 -410.64886 4285161303
152.452 -18.628 -410.71103 4285030747
153.53888 -18.624443 -410.56442 4285359713
154.50615 -18.599998 -410.60226 4285293400
155.50999 -18.553331 -410.65662 4285688413
156.44666 -18.51 -410.63998 4286149225
157.45332 -18.49 -410.54166 4286543984
158.52144 -18.514284 -410.46286 4286741105
159.47334 -18.505001 -410.43997 4286871916
160.78 -18.459999 -410.54999 4286938997
161.64999 -18.549999 -410.35999 4287595898
162.47501 -18.577499 -410.34497 4287595637
163.472 -18.563999 -410.42001 4287201909
164.48666 -18.593332 -410.35999 4287267447
165.72333 -18.690001 -410.30334 4287135858
166.50801 -18.726002 -410.34 4286543460
167.46001 -18.799999 -410.34747 4287660912
168.29001 -18.727501 -410.72751 4287595634
169.40666 -18.853333 -410.78333 4287794036
170.31 -18.85 -411 4287924085
119.62215 -11.380197 -410.26077 4279242250
54.719997 62.526669 -410.18997 4282924592
53.753998 63.746002 -410.16202 4282795839
54.244999 63.220001 -410.185 4282860860
52.634998 64.794998 -410.07501 4283058502
53.575718 64.561424 -410.48715 4282926140
50.75 65.599998 -410.25 4282993732
51.41 65.541252 -410.14502 4282993739
52.405552 65.372223 -410.23669 4283124036
53.498569 65.351425 -410.72287 4283056694
231.51418 -136.49583 -409.54919 4280162840
214.905 -123.25 -409.17999 4280361750
215.26332 -123.58334 -409.31003 4280951066
214.67111 -122.32113 -409.23166 4280229396
215.29874 -122.56999 -409.59879 4280163351
217.078 -119.89799 -409.444 4280425500
188.14999 -93.154999 -409.09998 4280557344
189.75 -93.25 -409.95999 4282005813
187.85001 -92.169998 -409.13 4280820759
188.436 -92.542992 -409.35602 4281545780
189.202 -92.492004 -409.78604 4282138427
187.58499 -91.305 -409.38 4280427552
188.41667 -91.589996 -409.73999 4281744183
189.08 -91.910004 -409.98001 4282007098
186.52499 -90.380005 -409.28998 4280884510
187.472 -90.459999 -409.74799 4280361494
185.63335 -89.443329 -409.25668 4280688666
186.64499 -89.544998 -409.77002 4280229909
184.632 -88.336006 -409.26801 4280623648
185.42668 -88.556671 -409.57333 4280492058
186.02 -88.699997 -409.82999 4280557591
183.71001 -87.330002 -409.19 4281475618
184.40199 -87.602005 -409.46799 4280623647
185.23999 -87.584999 -409.905 4280623385
182.78857 -86.16143 -409.12857 4280952867
183.50455 -86.403633 -409.40637 4281083681
184.39999 -86.645004 -409.87 4280819998
182.5625 -85.522995 -409.27155 4281018400
179.35881 -84.228233 -409.07004 4278716422
181.81091 -84.536369 -409.78818 4280228373
177.83565 -83.549995 -409.3775 4278519044
178.54474 -83.719994 -409.20248 4278979082
179.17499 -83.889999 -409.05167 4279965460
181.61143 -83.574287 -409.96286 4280754461
181.26001 -82.870003 -409.94501 4280558109
174.92999 -49.029999 -409.98999 4281017116
175.66 -49.009998 -409.76001 4280031508
176.45 -49.155998 -409.79199 4280097042
177.48334 -49.208332 -409.495 4281017119
178.45999 -49.348003 -409.45401 4281412897
179.64427 -49.464291 -409.48358 4280885784
180.45819 -49.482273 -409.45322 4280425489
181.54207 -49.646252 -409.61081 4280493345
182.60474 -49.66737 -409.6637 4281676324
183.43001 -49.545559 -409.52502 4281412126
184.571 -49.616005 -409.57001 4281873719
185.49834 -49.531666 -409.655 4282928195
186.41876 -49.417496 -409.53247 4281676330
187.54399 -49.377003 -409.56799 4281479207
188.44002 -49.425999 -409.77399 4280754977
189.556 -49.254002 -409.60199 4281940799
190.46249 -49.182499 -409.63251 4281611296
191.56859 -49.284283 -409.78427 4281280293
192.39799 -49.315998 -409.84601 4282272331
193.41499 -49.287502 -409.92749 4282400057
194.28 -49.150002 -409.98001 4281677349
170.62666 -48.083332 -409.40665 4280886551
171.465 -48.272499 -409.5675 4281149213
172.5 -48.460003 -409.48999 4281280032
173.455 -48.682499 -409.46252 4280688151
174.50601 -48.841999 -409.54196 4280557335
175.39 -48.83667 -409.39999 4280688921
176.35399 -48.928001 -409.22601 4280819217
188.265 -48.880001 -409.10999 4280624932
189.4375 -48.832497 -409.1575 4282138945
190.5 -48.720001 -409.17999 4281811255
191.40999 -48.766666 -409.30002 4281543974
192.70667 -48.626667 -409.29666 4280625687
193.58333 -48.450001 -409.29666 4282332981
194.57332 -48.383331 -409.46167 4283190865
195.43001 -48.434998 -409.65253 4281940005
196.55 -48.220001 -409.72501 4283190861
197.35001 -48.09 -409.85999 4283782750
163.56 -47.050003 -409.84 4280425746
164.43333 -47.130001 -409.57666 4280360467
165.43143 -47.255711 -409.44711 4281016343
166.27599 -47.411999 -409.48602 4281016607
167.37399 -47.627998 -409.52402 4281280018
168.57333 -47.746662 -409.3483 4280162318
169.34 -47.855999 -409.39398 4280228885
194.62 -47.91 -409.10001 4282930008
195.51749 -47.77 -409.1825 4282531891
196.4675 -47.627502 -409.19501 4281610536
197.582 -47.478672 -409.28265 4281481005
198.373 -47.417503 -409.44946 4282268989
199.50334 -47.463333 -409.82999 4281808431
200.32001 -47.213333 -409.8967 4281083168
158.54118 -46.365879 -409.46881 4280557082
160.58333 -46.213333 -409.25 4280951572
161.69833 -46.406666 -409.44669 4280359957
162.46475 -46.674732 -409.61105 4280886557
163.38454 -46.879089 -409.37186 4280688919
164.16 -46.919998 -409.01999 4280361496
198.61 -46.809998 -409.14664 4282270273
199.522 -46.512001 -409.34399 4281874485
200.61618 -46.345383 -409.47922 4281478440
201.43571 -46.44857 -409.69434 4281545258
202.25 -46.386662 -409.93335 4281084455
157.61125 -45.257504 -409.27316 4280359955
158.48228 -45.664543 -409.46045 4280688918
159.22455 -45.732731 -409.25546 4280754971
200.47835 -45.773335 -409.13834 4281281833
201.46501 -45.361668 -409.26169 4280953117
202.565 -45.684998 -409.69498 4281018913
203.58333 -45.316666 -409.82666 4281610023
204.20999 -45.334999 -409.97501 4280886305
201.67252 -44.654999 -409.14001 4280558109
202.32571 -44.597141 -409.28714 4280756256
203.55833 -44.450001 -409.59497 4281149216
204.51666 -44.375 -409.85001 4280952349
152.73666 -43.183334 -409.17001 4278190080
153.44 -43.605003 -409.25 4279438856
202.4175 -43.66 -409.11749 4280952865
203.44666 -43.39333 -409.34335 4280951578
204.522 -43.598 -409.694 4281345821
205.24249 -43.539997 -409.90997 4281083421
149.62 -42.040001 -409.13 4280556052
150.64285 -42.200005 -409.51001 4280687636
151.716 -42.644001 -409.44598 4279176201
152.25999 -42.919998 -409.25 4278190080
202.89 -42.619999 -409.10999 4280228373
203.53001 -42.48 -409.26001 4280426265
204.53751 -42.447502 -409.53748 4281280283
205.44249 -42.52 -409.8175 4280293649
206.00999 -42.169998 -409.92001 4280360470
149.40666 -41.880001 -409.67334 4280425236
203.65199 -41.564003 -409.14999 4281279773
204.39001 -41.526669 -409.38663 4281412387
205.42252 -41.407501 -409.67499 4280951572
206.32332 -41.316669 -409.93335 4280951831
203.7 -40.536003 -409.09198 4281476893
204.63602 -40.579998 -409.44 4280821787
205.5675 -40.432503 -409.67749 4280492568
206.36 -40.303333 -409.87997 4280952342
203.75 -39.540001 -409.04001 4280491801
204.58363 -39.416363 -409.27722 4280229654
205.46666 -39.543335 -409.57666 4280164375
206.44 -39.362499 -409.88998 4280622876
203.88 -38.463333 -409.05334 4280884243
204.51454 -38.475452 -409.26093 4280753939
205.42668 -38.356667 -409.58334 4280229399
206.52 -38.450001 -409.95999 4280688925
203.5 -37.52 -409.1275 4280688666
204.38713 -37.59 -409.42285 4281017372
205.47856 -37.314289 -409.81424 4280688152
206.28 -37.849998 -409.94 4280885784
202.64 -36.323334 -409.07004 4281018141
203.42 -36.459999 -409.33252 4281148700
204.45401 -36.349998 -409.75201 4281214487
205.23 -36.805 -409.88 4280360724
201.71001 -35.02 -409.10999 4281347100
202.59334 -35.586666 -409.19666 4281149980
203.52571 -35.420002 -409.55289 4281411869
204.355 -35.595001 -409.85336 4281346848
200.54001 -34.205002 -409.095 4281084709
201.5 -34.463333 -409.24667 4281412641
202.5 -34.489998 -409.47498 4281478941
203.63 -34.459999 -409.83502 4281543969
204.21001 -34.869999 -409.94 4281281060
199.95 -33.490002 -409.14001 4281220159
200.69 -33.389999 -409.45001 4282598460
201.66251 -33.584999 -409.67249 4282266662
202.51001 -33.584999 -409.85999 4282659102
203.3 -33.950001 -409.89001 4281083671
198.69501 -32.275002 -409.09 4282726949
199.42 -32.654999 -409.23248 4282465326
200.37334 -32.553333 -409.66 4283516211
201.37 -32.919998 -409.89999 4283450168
197.53999 -31.18 -409.01999 4282330914
198.52374 -31.4725 -409.30002 4281412896
199.49501 -31.627501 -409.67749 4282596137
196.55499 -30.23 -409.22 4283122225
197.50999 -30.365713 -409.43433 4282597178
198.47333 -30.489998 -409.70166 4282531382
199.21001 -30.780001 -409.89001 4283253299
194.78 -29.24 -409.04001 4284043071
195.614 -29.442001 -409.28201 4283912003
196.73334 -29.519999 -409.67001 4283450679
197.40401 -29.688 -409.77997 4283649093
193.59 -28.51 -409.04001 4284044100
194.49834 -28.465002 -409.39001 4283978309
195.25667 -28.523333 -409.66 4284305471
196.44 -28.889999 -409.92001 4283716159
192.405 -27.535 -409.25 4283451708
193.45999 -27.65 -409.51501 4284964173
194.58667 -27.766668 -409.84998 4284569416
188.83 -26.290001 -409.03 4285686088
189.57001 -26.263334 -409.26001 4285095244
190.53 -26.535 -409.33249 4285160783
191.37001 -26.613333 -409.52332 4285291849
192.405 -26.525 -409.91 4286018147
185.91 -25.040001 -409.04999 4286411110
186.71001 -25.18 -409.22 4287595107
187.41501 -25.434999 -409.26001 4286148191
188.44398 -25.493999 -409.51999 4285423186
189.48001 -25.540001 -409.79001 4285883989
190.54501 -25.805 -409.89999 4285094224
183.98 -24.18 -409.17999 4283326287
184.64999 -24.325001 -409.26501 4286871914
185.455 -24.33 -409.52002 4287136103
186.46999 -24.633333 -409.61337 4285753946
187.30499 -24.66 -409.875 4286935900
181.35001 -23.280001 -409.10999 4286341201
182.45999 -23.380001 -409.405 4286935891
183.455 -23.705 -409.435 4287201643
177.83 -22.049999 -409.14001 4288515443
178.575 -22.26 -409.125 4288646006
179.49199 -22.462 -409.26801 4286937709
180.43001 -22.439999 -409.61752 4286540890
181.48999 -22.695 -409.72498 4287594086
173.86 -21.110001 -409.07001 4286872936
174.41667 -21.15 -409.20667 4287530092
175.34499 -21.216665 -409.38834 4287529068
176.51749 -21.4275 -409.48749 4287332973
177.496 -21.546 -409.65802 4287331175
178.51666 -21.74 -409.71997 4287594607
179.63499 -21.889999 -409.92499 4287199079
169.78999 -20.139999 -409.04999 4287923060
170.515 -20.125 -409.27499 4287662448
171.745 -20.3125 -409.35748 4287792754
172.634 -20.436001 -409.46799 4287464045
173.47443 -20.638891 -409.47107 4287465067
174.36751 -20.7075 -409.67749 4289107848
175.43501 -20.795 -409.88501 4287990139
137.39 -19.081427 -409.84286 4283516214
138.354 -19.092001 -409.86603 4283583289
139.59 -19.02 -410 4283846467
162.87 -19.030001 -409.10001 4287201918
163.63 -19.15 -409.01999 4287463535
164.88 -19.01 -409.54999 4287266933
165.69 -19.17 -409.375 4286938477
166.51999 -19.130001 -409.57001 4287332716
167.67 -19.372499 -409.38748 4287661683
168.62 -19.618002 -409.32401 4288056954
169.48427 -19.722857 -409.47714 4287793273
170.455 -19.74 -409.755 4287399029
171.21333 -19.846666 -409.81998 4287530353
129.57001 -18.044001 -409.76797 4281148441
130.575 -18.204546 -409.49326 4280755228
131.48 -18.383333 -409.54221 4280821020
132.38 -18.272858 -409.33569 4281148954
133.47667 -18.356667 -409.69003 4281149724
134.54286 -18.405714 -409.39142 4282528808
135.573 -18.581999 -409.59198 4282530350
136.50055 -18.801662 -409.52499 4283122997
137.40787 -18.789288 -409.3093 4283714882
138.425 -18.780001 -409.41333 4283911998
139.53999 -18.719999 -409.48337 4284372552
140.54625 -18.641249 -409.505 4284833364
141.48 -18.646667 -409.63669 4284964692
142.42751 -18.6 -409.47 4284768081
143.33 -18.626665 -409.44003 4285030490
144.57666 -18.646667 -409.40665 4285031258
145.64 -18.713333 -409.64664 4284702807
146.50667 -18.629999 -409.43335 4284833876
147.53667 -18.699999 -409.76669 4284571991
148.515 -18.635 -409.435 4285096796
149.48334 -18.633333 -409.67334 4285162076
150.61401 -18.548 -409.45001 4285096016
151.27667 -18.586668 -409.50668 4285424983
152.69749 -18.5975 -409.57501 4285753949
153.56999 -18.581999 -409.716 4286016352
154.50833 -18.591667 -409.51334 4285951589
155.45999 -18.6175 -409.5325 4285951844
156.35001 -18.639999 -409.44 4285952362
157.42999 -18.68 -409.465 4286478186
158.49751 -18.692499 -409.54749 4286544232
159.2775 -18.685001 -409.59253 4287004015
160.56 -18.713333 -409.55667 4287267190
161.35001 -18.756001 -409.54401 4287267189
162.28001 -18.83 -409.47336 4287465593
163.50667 -18.836666 -409.70334 4287267959
164.27 -18.950001 -409.56 4287530610
166 -18.969999 -409.79999 4287463278
127.64166 -17.485001 -409.24667 4280492319
128.46388 -17.567223 -409.52167 4279965973
129.58751 -17.906668 -409.47006 4281017886
130.17499 -17.970001 -409.435 4280820765
71.249992 48.213333 -409.785 4279571213
53.736668 61.801666 -409.18497 4282861381
54.477207 61.464005 -409.3652 4282992705
52.7925 62.550003 -409.10498 4283059021
53.30455 62.315456 -409.25638 4282796615
54.205002 62.34 -409.73999 4282927429
51.919998 63.91 -409.16 4283124811
52.540001 63.575554 -409.44113 4282796354
53.374001 63.450001 -409.76001 4282927172
50.845001 64.8675 -409.16 4283124299
51.570995 64.655006 -409.33652 4283255362
52.347279 64.39727 -409.72363 4282861890
50.807499 65.209999 -409.60498 4283124298
51.433002 65.188004 -409.73349 4283059014
217.7075 -128.19 -408.23749 4282138168
217.42 -127.82999 -408.19666 4282072378
213.83 -124.02 -408.04999 4281283118
214.60571 -124.41286 -408.28571 4281743150
215.20222 -124.62778 -408.53888 4282006066
213.66251 -123.41063 -408.25119 4280821275
214.39572 -123.52143 -408.67429 4280755740
215 -124 -408.85001 4281281816
214.15875 -122.645 -408.86874 4280229917
215.70847 -120.79461 -408.31842 4280032020
216.49463 -120.58114 -408.51727 4279965455
217.155 -120.37251 -408.85999 4279965716
184.25 -93.25 -408.17001 4280293911
186.85667 -93.176666 -408.10999 4280493092
187.50499 -93.209999 -408.62332 4280557339
184.25 -93 -408.01001 4280228886
185.73 -92.199997 -408.07999 4280950550
186.46252 -92.509384 -408.31873 4280427036
187.39 -92.580666 -408.72934 4280491800
184.89999 -91.169998 -408.10999 4280360727
185.49625 -91.540001 -408.26373 4280491798
186.55168 -91.658333 -408.73669 4280557335
187.255 -91.830002 -408.94 4280753174
184.58801 -90.374001 -408.25397 4280229663
185.48 -90.339996 -408.76334 4280819228
186.16 -90.790001 -408.91 4280491542
183.58667 -89.224159 -408.22498 4280032021
184.46858 -89.602852 -408.54999 4280492576
181.985 -88.160004 -408.11499 4281215007
182.50305 -88.383057 -408.19174 4281345566
183.42143 -88.431435 -408.41574 4280952352
184.16333 -88.589996 -408.89999 4280951584
178.49818 -87.176361 -408.52362 4280951323
181.88857 -87.577148 -408.07144 4281477150
182.42723 -87.583885 -408.40054 4281411617
183.30386 -87.730766 -408.70389 4281148964
178.64957 -86.825653 -408.49478 4281147930
179.345 -86.452499 -408.14749 4281214233
180.58667 -86.273338 -408.07666 4281148699
183 -87 -408.87 4281411874
177.75 -85.324997 -408.30499 4280886040
178.46616 -85.588463 -408.35461 4281147929
179.46286 -85.749283 -408.42285 4281279773
180.23143 -85.648567 -408.65286 4281017117
181.5625 -85.774994 -408.7525 4280952089
182.27 -85.800003 -408.98999 4281018145
177.75 -84.889999 -408.75 4281214238
179.44 -84.120003 -408.98999 4278190080
177.98334 -83.200005 -408.63998 4278190080
178.26826 -83.264473 -408.7507 4279307788
179.20667 -83.883331 -408.98666 4279768852
178.50899 -49.088001 -408.80203 4280624154
179.40001 -49.133335 -408.82498 4282072122
180.14999 -49.165001 -408.98999 4281084445
181.28999 -49.09 -408.98001 4280361759
182.25999 -49.080002 -409 4283720004
183.97 -49.18 -408.94 4280689437
184.52499 -49.110001 -408.89001 4281149728
171.63 -48.1175 -408.5025 4281213210
172.62555 -48.291111 -408.3533 4280492305
173.54898 -48.420002 -408.33896 4281083673
174.3757 -48.402859 -408.39716 4281214230
175.46625 -48.481251 -408.375 4281083935
176.52182 -48.689087 -408.40915 4281675806
177.46181 -48.81818 -408.54816 4281015824
178.53799 -48.813 -408.41 4280622363
179.51721 -48.667221 -408.36777 4282139715
180.4875 -48.66 -408.49124 4281084453
181.45599 -48.571999 -408.358 4280953375
182.642 -48.620003 -408.45599 4281152295
183.66109 -48.762222 -408.55222 4281149733
184.48112 -48.628891 -408.45221 4281741101
185.54832 -48.471668 -408.37167 4281084703
186.39857 -48.535709 -408.47144 4281347634
187.4557 -48.514286 -408.56146 4282335033
188.64333 -48.423336 -408.67667 4281610282
189.55666 -48.316666 -408.68002 4282069285
190.355 -48.281666 -408.74667 4281477413
191.32001 -48.254997 -408.82501 4281610279
192.21001 -48.32 -408.98001 4281542944
165.58 -47.105 -408.88501 4280886560
166.44287 -47.170002 -408.57285 4281411617
167.41856 -47.245708 -408.39142 4281148447
168.43857 -47.435711 -408.61996 4280754201
169.564 -47.59 -408.46405 4280688406
170.56 -47.875999 -408.51398 4280886556
171.17 -47.959999 -408.10001 4280952345
188.42 -47.959999 -408.14001 4282463539
189.5 -47.940002 -408.26001 4281871652
190.66667 -47.776669 -408.24332 4281019685
191.59999 -47.66333 -408.29001 4281940281
192.39333 -47.74667 -408.51663 4281413409
193.45499 -47.57 -408.54501 4281676071
194.48199 -47.403999 -408.62601 4281413674
195.67 -47.264999 -408.79999 4281808698
196.50166 -47.154999 -408.78 4281545518
197.34286 -47.175713 -408.92285 4281150497
160.60001 -46.049999 -408.79999 4280492819
161.548 -46.170002 -408.664 4279965197
162.4557 -46.267143 -408.47141 4280820250
163.59 -46.597141 -408.57715 4280754196
164.56 -46.797501 -408.49496 4280819993
165.37666 -46.899998 -408.29333 4281279771
193.67999 -46.93 -408.09 4281876025
194.6875 -46.709999 -408.1275 4280493087
195.59764 -46.578819 -408.25473 4281611052
196.35002 -46.597141 -408.41141 4281678136
197.50929 -46.70071 -408.71146 4281149984
198.272 -46.552002 -408.92001 4281545516
199.06 -46.07 -408.98999 4282725425
157.57251 -45.108753 -408.61752 4280885013
158.60699 -45.436005 -408.63397 4280819480
159.39125 -45.651253 -408.64749 4280623124
160.23 -45.875 -408.53 4281017111
161.07001 -46 -408.35999 4280427541
196.33 -45.799999 -408.09998 4281345571
197.61334 -45.336666 -408.18002 4281346852
198.51199 -45.528 -408.50198 4281346851
199.48929 -45.482143 -408.73288 4281083422
200.33998 -45.328335 -408.91165 4280953634
154.43201 -44.234001 -408.474 4280623130
155.33333 -44.740002 -408.16666 4279044874
156.75 -44.970001 -408.25 4280558615
157.125 -44.990002 -408.5 4281082135
197.91 -44.849998 -408.04001 4281148959
198.64876 -44.704998 -408.16876 4280165663
199.43715 -44.585712 -408.38858 4280558107
200.51167 -44.428333 -408.73331 4281083162
201.14999 -44.279999 -408.91 4279834645
152.56667 -43.205002 -408.51001 4281016859
153.61874 -43.737499 -408.51624 4280096014
154.05 -43.970001 -408.29498 4280752917
198.86499 -43.629997 -408.03497 4280622360
199.61334 -43.544998 -408.21997 4281083163
200.37666 -43.478333 -408.41501 4281213980
201.41499 -43.504997 -408.78751 4280491030
149.72751 -42.184998 -408.3075 4280556820
150.50665 -42.380001 -408.56998 4280556306
151.57999 -42.732853 -408.52142 4280753942
152.25 -43 -408.75 4281017380
199.56334 -42.799999 -408.05002 4280820500
200.416 -42.390003 -408.21002 4280688662
201.4325 -42.477501 -408.59503 4281278490
202.32001 -42.445 -408.905 4281081364
147.53999 -41.382 -408.47003 4280359951
148.472 -41.732002 -408.68399 4280622354
149.20999 -41.970001 -408.65002 4280622098
200.53168 -41.543331 -408.19833 4281016084
201.576 -41.472 -408.51797 4280754199
202.392 -41.504002 -408.73999 4280950295
203.04999 -41.275002 -408.86499 4280950295
145.784 -40.439999 -408.54999 4280424719
146.298 -40.695 -408.677 4280293389
200.76001 -40.575001 -408.19 4280886041
201.44 -40.675003 -408.38 4280360466
202.45 -40.537498 -408.595 4280163093
203.252 -40.532001 -408.88998 4281214233
200.52 -39.510002 -408.03 4281476889
201.455 -39.496666 -408.28165 4280622613
202.56198 -39.556 -408.61398 4280819736
203.36749 -39.442501 -408.89752 4280491798
200.91501 -38.605003 -408.13 4280558618
201.5 -38.416 -408.32001 4281280287
202.43666 -38.531666 -408.62 4281149986
203.34668 -38.496666 -408.89331 4280819996
199.99001 -37.049999 -408.07999 4281017112
200.52 -37.363331 -408.16 4280623385
201.45998 -37.548336 -408.42502 4281609249
202.56999 -37.393337 -408.84 4281478428
198.64999 -36.02 -408.07001 4281806629
199.56 -36.403999 -408.17801 4281214493
200.58 -36.484001 -408.41 4280623384
201.61749 -36.6175 -408.66998 4281017112
202.22 -36.724998 -408.845 4281215262
197.89999 -35.27 -408.04999 4281412894
198.40199 -35.355999 -408.20999 4281148438
199.54333 -35.615002 -408.44498 4281413156
200.30499 -35.504997 -408.64999 4280756260
201.25334 -35.593334 -408.84335 4281083674
202.02 -35.860001 -408.97 4281215771
197.64749 -34.227501 -408.1275 4280952354
198.50858 -34.5 -408.45142 4280690208
199.375 -34.404999 -408.73999 4281543206
200.42 -34.84 -408.875 4281347623
197.532 -33.477997 -408.23798 4281741346
198.44249 -33.535 -408.625 4282004523
199.35333 -33.653336 -408.91 4281678127
196.44249 -32.467499 -408.14749 4281872417
197.56799 -32.576 -408.51596 4281281565
198.33333 -32.453335 -408.88669 4282070568
195.70332 -31.483332 -408.28003 4280888092
196.33333 -31.49 -408.52832 4282397988
197.58333 -31.766668 -408.80664 4281806375
192.94 -30.190001 -408.10999 4282661932
193.642 -30.322001 -408.19199 4282857767
194.4075 -30.547499 -408.24503 4282990129
195.49501 -30.555 -408.63 4282400051
196.2 -30.610001 -408.89999 4283186986
197.06 -31 -408.97 4282793505
191.85001 -29.185001 -408.185 4282661165
192.52167 -29.441666 -408.30832 4283122222
193.52 -29.434286 -408.5657 4282269746
194.34 -29.619999 -408.66498 4282596908
195.03 -29.76 -408.85001 4284174402
189.81 -28.34 -408.01001 4284304958
190.5275 -28.425001 -408.16501 4283451963
191.54749 -28.34 -408.52249 4283122491
192.58 -28.513334 -408.76669 4283713849
193.26001 -28.939999 -408.745 4283517497
187.34 -27.059999 -408.04999 4283517498
188.87 -27.540001 -408.23001 4284308825
189.63 -27.52 -408.44501 4284108344
190.5925 -27.435001 -408.76498 4284240709
191.67 -27.75 -408.89001 4284042564
185.64 -26.049999 -408.19 4285359954
186.485 -26.459999 -408.16998 4284635727
187.42499 -26.33 -408.58002 4284701769
188.41333 -26.773333 -408.57999 4285095243
189.81 -26.84 -408.92001 4284242762
182.91 -25.02 -408.12 4285030478
183.67 -25.309999 -408.10999 4285228116
184.7 -25.33 -408.42001 4286212696
185.375 -25.535 -408.47998 4285227088
186.42 -25.743332 -408.67334 4285228370
181.56499 -24.25 -408.31003 4286541141
182.59 -24.521999 -408.43597 4286016604
183.51999 -24.575001 -408.70001 4286081623
184.17 -24.764999 -408.73499 4286213723
185.11 -24.969999 -408.85001 4285752156
177.67999 -23.030001 -408.04999 4287857523
178.87 -23.08 -408.39999 4286345307
179.66 -23.360001 -408.45251 4287594341
180.51668 -23.580002 -408.55667 4287067487
181.59666 -23.746668 -408.7767 4285885018
182.37 -23.950001 -408.85999 4287068002
174.2 -22.049999 -408.10001 4287660652
175.60001 -22.470001 -408.095 4287333238
176.38332 -22.340002 -408.47336 4287464560
177.54001 -22.612499 -408.46997 4287464816
178.62 -22.665001 -408.72 4286741348
179.26001 -22.825001 -408.83002 4286149462
170.64999 -21.129999 -408.04999 4289234292
171.53999 -21.1 -408.38 4287004264
172.485 -21.376665 -408.34836 4287332457
173.32874 -21.431252 -408.53876 4287399021
174.56874 -21.736248 -408.58127 4287398251
175.255 -21.715 -408.79999 4287924090
166.96001 -20.18 -408.03 4287792757
167.705 -20.139999 -408.31 4287925884
168.47 -20.380001 -408.24332 4287990650
169.30666 -20.24 -408.73666 4287661939
170.2 -20.51 -408.67999 4286938982
171.47333 -20.709999 -408.80334 4287331951
172.43666 -20.903334 -408.86667 4286937960
159.98 -19.059999 -408.14001 4287333231
160.8 -19.08 -408.26999 4287596918
161.715 -19.130001 -408.44 4287464823
162.88 -19.33 -408.41 4287529329
163.60667 -19.539999 -408.21335 4287398770
164.51599 -19.48 -408.548 4287530353
165.39999 -19.619999 -408.47 4287332978
166.49251 -19.719999 -408.57001 4287332971
167.50667 -19.743332 -408.79666 4287858034
129.56 -18.088001 -408.52698 4281149725
130.50858 -18.200718 -408.65005 4281542684
131.46231 -18.176155 -408.71921 4282069019
132.47501 -18.115002 -408.745 4282465064
133.75 -18.186666 -408.76663 4282727728
134.49666 -18.226667 -408.71667 4283254074
135.53625 -18.31625 -408.58752 4283845953
136.40556 -18.383335 -408.57333 4284175172
137.4825 -18.372499 -408.64001 4284242513
138.57001 -18.315001 -408.68246 4284701007
139.50999 -18.184 -408.45798 4284701777
140.52499 -18.190001 -408.51752 4284964433
141.44 -18.256001 -408.60999 4284899159
142.465 -18.3325 -408.4975 4284898642
143.47334 -18.366667 -408.48331 4284834648
144.41501 -18.32 -408.21503 4285293659
145.44 -18.43 -408.56 4285162330
146.34001 -18.433332 -408.65332 4285161556
147.23801 -18.383999 -408.418 4285228377
148.52499 -18.445 -408.54501 4285819231
149.50999 -18.434999 -408.52499 4285884256
150.552 -18.434 -408.444 4285819483
151.66 -18.525002 -408.38501 4286017634
152.56999 -18.5525 -408.42499 4286016863
153.41751 -18.5425 -408.41248 4285951326
154.57501 -18.57 -408.67499 4286083941
155.52333 -18.640001 -408.44003 4286412648
156.61333 -18.723333 -408.54996 4286675312
157.36333 -18.800001 -408.58667 4286872427
158.4525 -18.895 -408.4325 4287070324
159.36 -18.940001 -408.39999 4287004259
160.30499 -18.915001 -408.72998 4287069297
161.24001 -18.950001 -408.79001 4287332216
126.68286 -17.348572 -408.27426 4279704850
127.57333 -17.517778 -408.53113 4280164117
128.47295 -17.748825 -408.47354 4280886551
129.455 -17.943333 -408.3483 4281413153
130.37334 -17.933334 -408.04666 4282923314
131.576 -17.914 -408.17999 4282859574
132.35501 -17.865 -408.14999 4283781445
133.33499 -17.950001 -408.255 4283716163
134.5 -17.969999 -408.09 4284108871
138.28999 -17.969999 -408.03 4284964949
70.589447 45.475555 -408.47888 4281215010
