# .PCD v0.7 - Point Cloud Data file format
VERSION 0.7
FIELDS x y z rgba
SIZE 4 4 4 4
TYPE F F F U
COUNT 1 1 1 1
WIDTH 1306
HEIGHT 1
VIEWPOINT 0 0 0 1 0 0 0
POINTS 1306
DATA ascii
351.56601 109.69399 -446.508 3223077
351.85001 110.11 -446.04999 3486237
352.556 110.532 -446.57404 3288870
352.95001 111.4 -446.01999 3814963
353.39999 111.50333 -446.68002 2893091
353.80002 112.37333 -446.49667 2959140
354.28497 112.7375 -446.81003 3157027
353.89999 113.16 -446.03 3422002
354.55569 113.56857 -446.55856 3748136
355.03 113.73 -446.85999 3418924
354.48331 114.49667 -446.22 4734004
355.3075 114.5825 -446.79251 4405551
354.81332 115.48 -446.28665 5917757
355.51001 115.69 -446.71249 5786168
354.83002 116.36501 -446.16498 5524026
355.51801 116.45801 -446.63397 6312258
356.06 116.14 -446.98999 6836800
354.92999 117.27 -446.01999 5655349
355.48999 117.505 -446.35669 6509636
356.21335 117.72666 -446.77664 6378564
355.68997 118.35333 -446.25 6641732
356.51749 118.44501 -446.77249 6312512
355.78 119.535 -446.12 5787197
356.43747 119.42249 -446.58752 5918005
356.48749 120.545 -446.53 6377534
355.95999 121.08 -446.10001 6576972
356.55801 121.52999 -446.51202 6379077
355.98001 122.87 -446.22 6575424
356.47601 122.45 -446.492 6378822
357.22 122.3 -446.97 6313030
355.61749 123.5125 -446.14499 6838607
356.63663 123.57333 -446.73331 7036752
355.60498 124.495 -446.25748 6905938
356.29498 124.69499 -446.59247 7103060
357.02002 124.435 -446.935 7037525
354.80252 125.81 -446.10748 8619399
355.60135 125.548 -446.44733 7960190
356.32928 125.57001 -446.80573 7432020
352.85001 126.92 -446.06 7100751
353.50775 126.73444 -446.27002 6906197
354.53183 126.32864 -446.35178 7432544
355.31918 126.30167 -446.74832 7432283
356.06 126.06 -446.89999 7300440
350.84 127.99 -446.20001 6641734
351.492 127.802 -446.40201 6378307
352.32452 127.46545 -446.53 6445386
353.28 127.15 -446.86499 7103578
348.60001 128.96001 -446.06 7167306
349.58334 128.71001 -446.38669 6577227
350.58252 128.3275 -446.52499 6640961
351.34335 128.15666 -446.84 6181441
346.61499 129.705 -446.08499 6511442
347.49249 129.67749 -446.595 6904913
348.384 129.28201 -446.47598 6838856
349.20999 129.00999 -446.60001 6576719
343.37997 130.87666 -446.42001 6905937
344.45126 130.54126 -446.39499 7037780
345.63501 130.29167 -446.57166 7233877
346.46503 130.1725 -446.84747 6970959
340.69 131.98 -446.23999 7563101
341.44598 131.72 -446.40201 7365464
342.4025 131.33499 -446.53751 7102288
343.19 131.09 -446.85999 6905939
337.87 132.99001 -446.54999 8483430
338.46002 132.83249 -446.45001 8154977
339.58749 132.57501 -446.67499 7826787
340.40503 132.20999 -446.47 7564128
333.6575 133.8725 -446.50751 8484461
334.51501 133.66 -446.46747 8025192
335.35999 133.48601 -446.54999 8089957
336.54001 133.27834 -446.71335 8155749
337.54333 133.06667 -446.59335 8221284
322.50662 134.84666 -446.51001 8487035
323.548 134.776 -446.48199 8750205
324.586 134.694 -446.59399 8618876
325.48669 134.60667 -446.71335 8553089
326.51999 134.53001 -446.47665 9408398
327.36334 134.55667 -446.54834 9277067
328.38 134.58333 -446.46667 9408130
329.47 134.60666 -446.51669 9407360
330.62668 134.48 -446.56998 9010548
331.625 134.25 -446.27002 8419699
332.38 134.11 -446.39502 8352620
333.06 134.03 -446.70001 8221803
318.5817 135.83501 -446.58667 8157814
319.638 135.504 -446.56796 7828590
320.41 135.26999 -446.69598 7631467
321.37 135.04001 -446.47998 7829107
314.66501 136.86 -446.41 8420985
315.47 136.63501 -446.56 8093053
316.59503 136.345 -446.40747 8157815
317.64664 136.09334 -446.48331 8223864
310.59668 137.92 -446.26001 8881020
311.38501 137.73001 -446.54501 8814713
312.41998 137.45 -446.52502 8749690
313.69501 137.11499 -446.47 8749692
314.04999 137.02 -446.98001 8619132
305.56 138.935 -446.315 8619394
306.50836 138.78166 -446.49832 8487292
307.60251 138.545 -446.48749 8618362
308.41498 138.3475 -446.55753 8749180
309.39749 138.155 -446.45248 9012355
310.26001 138.00999 -446.59 8750208
249.32715 139.92429 -446.8186 4736320
250.48 139.95 -446.82999 5065024
251.14 139.97 -446.85001 4868160
298.75 139.91 -446.75 6712429
299.51001 139.75876 -446.685 7172465
300.58667 139.61 -446.5 7764854
301.64001 139.455 -446.38501 8158584
302.41666 139.33998 -446.67334 8553081
303.58002 139.25002 -446.51797 8487550
304.53 139.09166 -446.57999 8683901
305.09 139.02 -446.06 9077885
247.332 140.02402 -446.30801 5065543
248.59668 140.06667 -446.13669 4933436
249.394 140.104 -446.26202 4736320
250.26335 140.16667 -446.27664 4604986
251.55501 140.24333 -446.3483 4606275
252.25 140.41 -446.25 4868165
294.75 140.91 -446.5 0
295.50333 140.75835 -446.40836 5986389
296.48666 140.48 -446.60999 7433061
297.39142 140.24429 -446.66714 7236450
298.35999 140.065 -446.45502 7104873
290.75 141.97 -446.75 7172201
291.46143 141.81001 -446.55713 5066570
292.39001 141.58 -446.51752 7171425
293.46399 141.298 -446.51001 7170913
294.31003 141.06667 -446.31668 7433574
286.56 142.705 -446.25 7697776
287.48666 142.55168 -446.375 7500653
288.38501 142.405 -446.57001 7237737
289.38571 142.25858 -446.57144 7237737
290.35333 142.09334 -446.56665 7237481
281.75 143.2 -446.25 7569013
282.5 143.07999 -446.25 8289138
283.5 143.02499 -446.25 7829364
284.25 143.02 -446.25 8026485
295.73999 91.339996 -445.25 0
296.09 91.463341 -445.19666 0
298.55499 91.790001 -445.25 4077876
299.25 91.93 -445.25 3945503
299.75 92.050003 -445.25 0
300.35889 92.246666 -445.6178 1512468
301.405 92.427505 -445.40747 1840919
302.55499 92.658333 -445.60666 657415
303.45749 92.791245 -445.6225 0
304.45999 92.860001 -445.35001 4932931
304.91 93.089996 -445.92001 3618348
305.60861 93.199997 -445.68857 3749160
306.40802 93.356003 -445.51801 2893854
307.72333 93.781654 -445.52832 2564124
308.22 93.919998 -445.25 2104090
308.64999 94.154289 -445.56284 2498586
309.49799 94.350006 -445.44604 2367770
310.46002 94.389999 -445.59998 2500388
311.34335 94.436668 -445.49667 2631198
312.57001 94.660004 -445.655 2895140
313.42804 94.865997 -445.56201 2697509
314.20999 94.980003 -445.01999 2565404
314.70667 95.113335 -445.48999 2630680
315.51999 95.300003 -445.42999 2367510
316.55334 95.66555 -445.48108 2301717
317.26334 95.883331 -445.29996 2300948
317.79999 96 -445.72 2235668
318.42999 96.129997 -445.28 2694677
319.44333 96.269997 -445.42667 2760472
320.41998 96.407501 -445.55252 2892059
321.60666 96.603333 -445.60001 2433560
322.60001 96.860001 -445.42001 1907472
323.09 96.970001 -445.57999 2890516
323.68716 97.18 -445.59857 2891539
324.46201 97.490005 -445.63803 2629398
325.20667 97.860008 -445.5 2037522
325.72 98.110001 -445.64001 1972244
326.72 98.713326 -445.47 2235931
327.14001 98.940002 -445.47 2497828
327.5433 99.160004 -445.54333 2300434
328.43832 99.614998 -445.46329 2565148
329.33499 99.904999 -445.77499 3089181
329.65002 100.075 -445.535 2828068
330.51602 100.462 -445.43002 3221277
331.51666 100.82333 -445.50668 3417625
332.07001 100.98 -445.64999 3287062
332.58002 101.37 -445.20001 3482653
333.42224 101.63444 -445.41888 3024150
334.35001 101.89001 -445.72 3090451
334.55002 102.21 -445.27664 3089427
335.57797 102.51801 -445.58398 3351577
336.39001 102.77 -445.82001 3285273
335.98001 103 -445.09 2172184
336.74249 103.1725 -445.47751 2826777
337.56284 103.61713 -445.57001 2432533
338.29333 103.82999 -445.86667 2629139
337.94 104.15 -445.07001 2629921
338.64124 104.22374 -445.51752 2629656
339.47601 104.56599 -445.51001 2629145
340.34998 104.75999 -445.85498 2629908
340.72 105.07 -445.60501 2827028
341.42499 105.455 -445.53748 2696212
342.46503 105.815 -445.815 1974037
342.39999 106.145 -445.22998 2630936
343.41498 106.52 -445.42499 2301205
344.66 107.06 -445.45001 2169369
345.46597 107.31999 -445.55997 2105115
346.38998 107.62333 -445.69666 2039061
347.51602 108.15 -445.37997 2302753
348.53671 108.45 -445.59 2695708
349.43335 108.84 -445.44666 2958619
350.06 108.93 -446 2828567
349.73999 109.07 -445.20999 3090719
350.38501 109.355 -445.39499 3156261
351.22751 109.765 -445.73502 3353637
351.41 110.18 -445.17999 3157541
352.17999 110.6925 -445.57001 3617070
352.51001 111.27 -445.36331 3749164
353.33502 112.375 -445.75 3748651
353.69855 113.55 -445.57718 3945766
353.82898 114.40499 -445.59799 4932405
354.11401 114.606 -445.892 5260601
353.79166 115.585 -445.25668 5720630
354.20334 115.44666 -445.79333 5655354
353.82999 116.38 -445.14334 5786169
354.24628 116.51375 -445.58249 5721145
354.41284 117.48571 -445.47287 5655612
354.57803 118.474 -445.34601 5196090
355.14999 118.56 -445.78671 6837567
354.64999 119.63333 -445.20334 4800307
355.31 119.505 -445.76001 5524283
354.84 120.52 -445.25 6114363
355.53 120.50999 -445.815 5720375
354.76001 121.47666 -445.11667 6049601
355.31332 121.36333 -445.57333 6311233
354.73001 122.595 -445.23001 6443332
355.51669 122.4 -445.81332 6509126
354.48001 123.74 -445.42853 7035726
355.186 123.476 -445.85199 6576204
353.62201 124.674 -445.20001 7167828
354.50082 124.44583 -445.68494 7168341
352.95999 125.85 -445.13 7692640
353.48056 125.56557 -445.35162 7366242
354.37857 125.58144 -445.80859 8418152
351.755 126.915 -445.09 7695455
352.69357 126.53471 -445.36942 7431773
353.42273 126.38865 -445.66727 7102549
354.23502 126.0925 -445.90247 7562848
349.79001 127.925 -445.255 7036743
350.73999 127.5425 -445.33002 7101516
351.397 127.251 -445.40698 7036753
352.28 127.11 -445.92001 6774084
346.85001 128.91 -445.07999 7431773
347.60001 128.856 -445.362 7234906
348.52875 128.52499 -445.38251 7169109
349.31802 128.23999 -445.43198 6840402
350.04001 128.22 -445.88 6643531
344.51999 129.99001 -445.09 7432280
345.59283 129.66 -445.38141 6906196
346.53802 129.28598 -445.44598 6905685
347.53 129.24001 -445.91 6839887
342.47 130.84999 -445.37802 7299667
343.52802 130.53799 -445.50201 7300694
344.44623 130.27625 -445.61377 7497814
339.94 131.8 -445.23999 7695203
340.51248 131.69751 -445.55502 7563102
341.44 131.33499 -445.63751 7037269
342.13 131.14499 -445.83002 7233619
337.51334 132.79668 -445.44333 8090723
338.41 132.51332 -445.42001 8089445
339.44998 132.20332 -445.60669 7827301
332.42667 133.90001 -445.29333 8549484
333.45752 133.6725 -445.39999 8352874
334.53998 133.48 -445.60748 8156266
335.28 133.34999 -445.68668 8286821
336.44 133.10333 -445.64001 8549738
321.73999 134.81 -445.13 7895412
322.40997 134.70999 -445.54251 8618883
323.202 134.616 -445.57001 9210246
324.39749 134.51001 -445.5575 8947846
325.51334 134.45332 -445.74667 9145742
326.55334 134.32333 -445.38998 9672336
327.40503 134.405 -445.70001 9736846
328.315 134.395 -445.38751 9670534
329.35999 134.45999 -445.41 9209468
330.31 134.38802 -445.43198 8682609
331.5025 134.17502 -445.58252 8221807
318.73999 135.84 -445.54999 8683394
319.44501 135.61 -445.23999 8289400
320.61401 135.246 -445.58197 7894894
321.31 135 -445.57001 7960434
314.655 136.85001 -445.32501 7632757
315.55249 136.61499 -445.45001 7633014
316.63 136.34001 -445.53 8026487
317.48999 136.14856 -445.53998 8159099
309.97 137.98 -445.10001 8817286
310.51669 137.89333 -445.52332 9012869
311.35999 137.7 -445.52997 8749950
312.48999 137.4175 -445.61499 8421245
313.505 137.16501 -445.745 8093055
305.44 138.94501 -445.47498 9275522
306.44501 138.73999 -445.33749 9014407
307.51251 138.53 -445.49249 9078916
308.47501 138.30499 -445.405 9275523
309.50668 138.11333 -445.74332 9078910
299.54501 139.94 -445.45502 7237998
300.36249 139.78 -445.595 7764081
301.36667 139.57333 -445.55334 8289914
302.5925 139.39249 -445.48749 8618878
303.36667 139.29666 -445.48666 9078400
304.53 139.10667 -445.46335 9013373
242.54147 140.52353 -445.45053 5656904
243.52545 140.40819 -445.57361 5460302
244.57143 140.31 -445.65073 5328969
245.51166 140.24666 -445.55161 5197126
246.4675 140.18626 -445.48871 4737344
247.44618 140.15231 -445.38846 4737346
248.36 140.23 -445.45575 4736831
249.41501 140.35625 -445.59998 4605506
250.45798 140.59599 -445.38199 4867904
251.45251 140.65875 -445.55499 4868678
252.455 140.75249 -445.70251 4737608
254.5 140.88499 -445.76001 3092005
255.25 140.96001 -445.73999 6118227
295.60498 140.87 -445.57501 7368552
296.3533 140.69667 -445.54333 7433826
297.43335 140.41667 -445.71335 7368550
298.565 140.175 -445.52002 7433578
252.505 141.095 -445.22501 5000520
253.51201 141.25601 -445.24799 5526089
254.37 141.27 -445.17334 2040346
255.33749 141.29999 -445.26749 3487535
291.68332 141.89667 -445.46667 7894893
292.66251 141.64999 -445.41 7500393
293.64664 141.38332 -445.41666 7565672
294.38669 141.19 -445.45999 7499880
295.10001 141.07001 -445.09 7762025
285.5 142.95499 -445.75 8026999
286.63501 142.78 -445.75751 7829618
287.285 142.69501 -445.465 7960948
288.27502 142.54001 -445.51501 7960945
289.49667 142.34999 -445.46667 7764080
290.595 142.1425 -445.37253 7763570
291.25 142.02 -445.19 7764589
275.5 143.7 -445.25 8224892
276.5 143.64999 -445.25 8224121
277.5 143.58499 -445.25 8618621
278.40332 143.50667 -445.17001 8421751
279.5 143.45999 -445.25 8028025
280.5 143.42 -445.25 8290426
281.68597 143.29201 -445.59 8487290
282.32666 143.21666 -445.51001 8290681
283.36499 143.1075 -445.47998 8420985
284.435 143.04001 -445.57501 8486269
285.14001 143.00999 -445.20999 8159351
295.6825 91.317497 -444.5625 1841429
296.38571 91.438576 -444.58429 2433047
297.58667 91.613335 -444.54333 3616803
298.57001 91.728577 -444.49286 3550758
299.37668 91.856667 -444.49667 3942686
300.59998 92.140007 -444.76331 3090984
301.48334 92.269997 -444.69998 3682606
302.39502 92.375 -444.60748 3421480
303.43002 92.523338 -444.58667 3948862
304.37668 92.65667 -444.41666 4210491
305.40002 92.880005 -444.44501 3815724
305.92001 93 -444.39001 2894366
306.31 93.184998 -444.85501 3419164
307.53998 93.51799 -444.53799 2630685
308.34399 93.841995 -444.61798 2038553
308.84 94.099998 -444.82999 2433303
309.42181 94.261818 -444.62003 2301207
310.40201 94.393997 -444.57999 2235930
311.40668 94.476662 -444.48666 2171166
312.595 94.639999 -444.565 2827553
313.58667 94.846672 -444.55002 2631202
314.07501 94.93 -444.47501 2433306
314.61499 95.035004 -444.39502 2170903
315.50833 95.303337 -444.43997 2301719
316.40399 95.639999 -444.65601 2301718
317.16501 95.899994 -444.535 2103571
317.89001 96.085007 -444.45001 2105106
318.64752 96.235001 -444.47748 2433042
319.5 96.375 -444.56 2826511
320.26001 96.505005 -444.60999 3022359
321.35501 96.735001 -444.54749 2891541
322.23001 96.919998 -444.60999 2432791
322.79498 97.119995 -444.45502 2235157
323.57666 97.355003 -444.52164 2432278
324.46667 97.696663 -444.62332 2563354
325.47198 98.251999 -444.354 1841426
326.37 98.697495 -444.52002 1513746
327.56201 99.372002 -444.53799 2497562
328.29498 99.755005 -444.60498 2892051
328.85001 100.10333 -444.41 2958622
329.59399 100.448 -444.47598 3155997
330.4075 100.7825 -444.5325 3352862
330.60999 101.14 -444.01999 4141345
331.53571 101.26286 -444.53714 3550234
332.55499 101.67625 -444.66376 3417622
333.23001 101.90833 -444.79501 3023631
332.76001 102.26334 -444.18002 3418135
333.63428 102.41 -444.5043 3154965
334.33167 102.62666 -444.57166 3023896
335.17999 102.84 -444.76001 3154711
334.52002 103.17 -444.03998 2958616
335.52603 103.222 -444.41803 3088915
336.37 103.63666 -444.42667 3089181
337.07001 103.86 -444.69 1975064
337.44501 104.245 -444.39999 2563868
338.38 104.6725 -444.47748 2695446
339.28 104.89 -444.78 2892051
339.41602 105.216 -444.33002 2695958
340.58749 105.595 -444.625 2695953
341.66998 106.21001 -444.51001 3024675
342.44003 106.67001 -444.34668 3024152
343.01999 106.62 -444.92999 2433562
343.49332 107.17001 -444.28 2695444
344.56003 107.41499 -444.60248 2301976
345.612 107.83 -444.40997 2237472
346.17001 107.86 -444.79001 2236700
346.79001 108.255 -444.285 2499873
347.63 108.465 -444.51501 2369577
348.42502 108.72749 -444.595 2828835
349 108.82 -444.97 2697755
349.54501 109.26749 -444.45752 3025440
350.435 109.7225 -444.65253 3288353
350.905 110.295 -444.27502 3354413
351.54501 110.66 -444.61249 3748649
351.62 111.03 -444.25 3814446
352.3075 111.615 -444.65503 3486764
352.63 112.745 -444.185 3815469
353.03 112.64 -444.98001 4076841
352.905 113.645 -444.14001 4012337
353.17667 113.45667 -444.71335 3946024
353.2475 114.45 -444.57748 4865842
353.22403 115.56801 -444.396 5195834
352.94 116.72 -444.01999 4800818
353.33667 116.445 -444.5217 5063992
353.45667 117.53667 -444.55502 5063992
352.92001 118.29 -444.01999 5523263
353.392 118.572 -444.35199 5129526
354.10666 118.71999 -444.89331 4865584
353.57501 119.39999 -444.36752 4602414
354.095 119.63499 -444.745 4471086
353.66 120.645 -444.285 5194806
354.37 120.6 -444.85001 5392450
353.76001 121.485 -444.32501 5852221
354.26749 121.5225 -444.71747 5918270
353.71997 122.545 -444.38501 6838602
354.32501 122.38 -444.83002 6903620
352.69 123.92 -444.03 7760989
353.52002 123.62858 -444.57715 7496533
354 123.12 -444.76001 7299413
352.54599 124.74599 -444.37201 7234127
353.26401 124.36 -444.73999 6970446
351.45999 125.67 -444.01999 7826788
352.45432 125.50572 -444.70432 7233359
350.76199 126.79201 -444.14005 7299667
351.44559 126.60161 -444.51608 7563358
352.2717 126.25666 -444.8667 7826271
348.46667 127.82999 -444.15332 7695714
349.47168 127.64333 -444.48999 7364951
350.51614 127.26155 -444.55844 7234134
351.26001 127.09 -444.92001 7432540
345.72501 128.88 -444.39502 7037523
346.57404 128.698 -444.608 7431517
347.31747 128.47 -444.62 7628117
348.26001 128.18251 -444.69 7563610
344.5275 129.45001 -444.345 7168852
345.23752 129.3575 -444.74249 7234387
341.47336 130.87 -444.58334 7628378
342.58997 130.52667 -444.65164 7562841
343.55664 130.19333 -444.70999 7169622
344.14999 130.11 -444.98999 7367001
338.94 131.97 -444.67001 8220261
339.53799 131.616 -444.46802 7826787
340.43835 131.28 -444.61502 7628635
335.37 132.88 -444.10001 8680554
336.57498 132.7025 -444.54874 8352616
337.46002 132.364 -444.40399 8352358
338.41 132.03 -444.37 8023143
331.64667 133.80667 -444.29004 8418152
332.57999 133.60333 -444.44333 8352874
333.55801 133.38199 -444.41602 8221542
334.42999 133.22 -444.465 8352613
335.37 133.05 -444.55499 8353383
321.47 134.78 -444.42999 8026232
322.56003 134.48 -444.59998 8685188
323.54749 134.29749 -444.50751 9408396
324.655 134.13501 -444.34 9343634
325.655 134.12001 -444.49249 9671828
326.56998 134.07666 -444.36002 9869459
327.41 134.19333 -444.70004 9671567
328.43832 134.265 -444.56833 9538433
329.57498 134.34001 -444.65332 9077111
330.34399 134.248 -444.694 8747888
331.25 134.02 -444.60001 8549733
318.39331 135.85001 -444.63333 8488063
319.56198 135.476 -444.50797 8486781
320.41333 135.17334 -444.45667 8092537
321.01999 135.03999 -445 7895417
314.69 136.815 -444.39502 7829880
315.44669 136.61333 -444.5 7633276
316.38998 136.35001 -444.52753 8026747
317.39749 136.0975 -444.54498 8356738
309.685 137.98 -444.44 9013897
310.37997 137.83333 -444.44003 8685445
311.34 137.61499 -444.37 8488062
312.46802 137.37401 -444.64801 8289403
313.35999 137.16 -444.63 7566713
314.03 137.00999 -444.94 7632763
304.62 138.92499 -444.35001 9277831
305.50665 138.79668 -444.51669 9605258
306.38669 138.63667 -444.5 9474190
307.49002 138.43799 -444.55402 9472901
308.56 138.19749 -444.33252 9342089
309.27499 138.09 -444.745 9145223
299.67001 139.82001 -444.10999 8815225
300.49335 139.70332 -444.73331 8420728
301.535 139.42499 -444.32001 9144450
302.41666 139.34001 -444.68002 9078912
303.48999 139.15625 -444.58124 9342087
304.73999 139.00999 -444.94 9145987
239.38399 140.73932 -444.67667 5657415
240.51413 140.7088 -444.5412 6248012
241.42998 140.66286 -444.57715 5788745
242.545 140.60249 -444.62 5460300
243.605 140.5175 -444.57498 5591878
244.49002 140.48599 -444.534 5525575
245.53 140.4375 -444.57251 5131586
246.43286 140.39142 -444.61002 4737603
247.45667 140.43333 -444.60336 4868159
248.50572 140.61714 -444.47287 5395013
249.52249 140.8175 -444.51001 5725004
250.32001 140.8725 -444.78247 5263945
295.62 140.97501 -444.565 7566699
296.42249 140.77249 -444.53 7828329
297.35001 140.53 -444.42249 8025708
298.63 140.15001 -444.43665 8025965
299.20001 140 -444.57999 8091247
250.49333 141.12334 -444.30331 6250839
251.63599 141.20601 -444.48599 6710360
252.56667 141.49333 -444.45914 6447963
253.52161 141.69736 -444.49948 6317147
254.3578 141.72002 -444.51779 7171937
255.43251 141.77249 -444.50873 5987671
256.07999 141.75 -444.75 0
291.69333 141.95667 -444.5 8092274
292.50333 141.77333 -444.56668 8026227
293.255 141.57001 -444.71002 7632751
294.418 141.28201 -444.63397 8024939
295.10336 141.11667 -444.44998 7959660
254.22 142 -444.04999 7566442
256.5 142.10001 -444.25 8224631
257.10001 142.21001 -444.23999 8355706
285.63 142.965 -444.45999 8487808
286.43332 142.85333 -444.47 8422012
287.43668 142.70332 -444.51669 8552572
288.22998 142.59 -444.41501 8421504
289.36667 142.40668 -444.76663 8158583
290.46335 142.21001 -444.40332 8289653
291.09003 142.08 -444.56 8223608
261.75 143.14 -444.26001 8356473
262.5 143.22 -444.1575 4407613
263.25 143.20999 -444.13501 4277057
273.5 143.86 -444.25 8750721
274.5 143.83501 -444.25 8685185
275.35165 143.74333 -444.58499 4211263
276.41 143.67 -444.54498 8619138
277.595 143.61 -444.535 8816513
278.83499 143.535 -444.69501 8488067
279.62668 143.50667 -444.75 8552573
280.57666 143.47333 -444.33667 8750465
281.67667 143.36333 -444.58334 8619389
282.45401 143.28201 -444.53799 8684671
283.505 143.16501 -444.53998 8815234
284.52664 143.07666 -444.63 8487805
294.46252 90.827499 -443.37622 1316370
295.48999 90.940002 -443.10999 3886384
295.64999 91.145004 -443.72498 0
296.43002 91.234993 -443.52502 2170131
297.26251 91.362495 -443.535 3484183
298.54999 91.537506 -443.35251 3484705
299.73669 91.779999 -443.61002 2957593
300.51501 91.889999 -443.44501 2892833
301.04001 91.949997 -443.23999 2827553
301.64001 92.065002 -443.41998 3156001
302.31833 92.161659 -443.45499 3287068
303.495 92.342506 -443.45499 2830121
304.52664 92.543335 -443.52664 3948084
305.65332 92.796669 -443.53333 3355178
306.66333 93.106667 -443.66333 2827805
307.40399 93.353996 -443.48599 2629399
308.43201 93.727997 -443.54401 1907733
309.47 94.097504 -443.46753 1972503
310.42499 94.375 -443.67499 2235158
311.5 94.557495 -443.57501 2366747
312.53598 94.681992 -443.59399 2826523
313.63 94.875 -443.31 2367519
314.07999 94.919998 -443.88 2301213
314.65997 95.120003 -443.23999 1973015
315.45166 95.366669 -443.48166 2104596
316.28333 95.699989 -443.58334 2694935
317.42999 96.080002 -443.48001 2629910
318.51999 96.333336 -443.56003 2695190
319.45001 96.550003 -443.51999 2826516
320.53247 96.785004 -443.56247 2892054
321.29001 96.940002 -443.63 3088146
320.89001 97 -443.04999 3154722
321.84 97.07 -443.66 2629650
322.42001 97.349998 -443.31 2498833
323.40799 97.607994 -443.5 2169361
324.07001 97.790001 -443.70999 3023387
324.58667 98.130005 -443.40665 3088413
325.57599 98.595993 -443.47003 2234387
326.534 99.167999 -443.41202 2038036
327.388 99.657997 -443.504 2760990
327.89999 100.08501 -443.32501 2827030
328.49249 100.43501 -443.39999 2892309
329.36749 100.6525 -443.8425 3352603
329.54001 101.155 -443.215 3615773
330.4975 101.47 -443.47498 4272929
331.52332 101.86667 -443.73337 4666660
331.59665 102.34111 -443.37109 4733732
332.51334 102.73 -443.63333 3878426
333.28 102.83 -443.97 3548695
332.67499 103.28751 -443.13248 4535846
333.61142 103.36143 -443.56143 3811612
334.50546 103.57818 -443.57187 3155480
335.47668 103.69666 -443.75668 2957594
334.87 104.09 -443.06 3548703
335.56332 104.22666 -443.18002 3024407
336.50003 104.626 -443.22403 3024403
337.2933 104.69334 -443.62332 2762015
338.34 104.97 -443.95999 2433303
337.53 105.19 -443.19 3221540
338.64752 105.5275 -443.45999 3024154
339.56332 105.72 -443.76334 2827548
339.70999 106.12333 -443.36002 3485215
340.63498 106.43999 -443.44501 3878942
341.47 106.8275 -443.3775 3616291
341.85001 107.2 -443.06 3879713
342.59601 107.262 -443.47803 3221018
343.35147 107.53999 -443.51859 2696731
344.54999 107.855 -443.70499 2762006
344.465 108.165 -443.06 2959911
345.62799 108.25801 -443.44003 2435110
346.38 108.384 -443.59799 2238497
347.51001 108.78 -443.47498 2369572
348.01001 108.87 -443.72 2435366
348.62332 109.19999 -443.49332 2566178
349.474 109.572 -443.62198 2829094
350.04999 109.81 -443.88 3157287
350.54401 110.442 -443.51797 3026727
351.13 110.87333 -443.77332 3880495
351.45001 111.44399 -443.496 3813932
352.14001 111.99 -443.98001 3879463
351.98999 112.34 -443.38 3551271
352.315 112.83 -443.535 3881008
352.50443 113.44778 -443.48001 4077613
352.76831 114.43667 -443.64499 4274737
352.65802 115.42 -443.444 4340527
352.59 116.44333 -443.54501 4668981
352.41 117.416 -443.49698 5063221
351.91998 118.625 -443.17999 5393212
352.48752 118.545 -443.625 5392959
351.89001 119.2 -443.17999 5853508
352.49167 119.37 -443.58667 5195068
353.08002 119.535 -443.97998 4866098
352.37 120.44999 -443.3967 5261114
352.40332 121.66333 -443.35001 5852993
353.19 121.36 -443.89999 5852221
351.79001 122.86 -443.07001 7232084
352.44333 122.61221 -443.47333 6444358
353.19 122.335 -443.96002 6116162
351.65665 123.47333 -443.12 7825761
352.46198 123.448 -443.67999 7365980
351.44498 124.67751 -443.44501 7959144
352.10001 124.465 -443.83499 8153952
350.526 125.666 -443.34601 8681841
351.30664 125.24667 -443.66 8090472
349.591 126.73698 -443.40997 7957856
350.34912 126.61907 -443.7709 7497049
346.70499 127.83501 -443.22501 7628633
347.5 127.64166 -443.27084 7826523
348.44708 127.40356 -443.37354 7956834
349.49231 127.19769 -443.69235 7431001
350.23999 127.01 -443.94 7365726
344.69336 128.73999 -443.40002 7299925
345.47601 128.51801 -443.62402 7234135
346.44598 128.18401 -443.68604 7627862
347.13 128.02 -443.76001 7693912
342.39999 129.85001 -443.29001 7627601
343.5625 129.425 -443.565 7234132
344.34 129.11 -443.72 7103054
339.78 130.96001 -443.20001 7629406
340.53 130.854 -443.63998 7563354
341.53198 130.43201 -443.60602 7694424
342.63 130.07001 -443.78 7235157
337.52145 131.79001 -443.31 8221286
338.47501 131.62 -443.60001 8024165
339.3725 131.28751 -443.60248 7695197
340.215 131.05499 -443.85498 7498335
333.69 132.89 -443.22 8485738
334.57001 132.86499 -443.60498 8353387
335.48499 132.56 -443.49002 8221541
336.414 132.26601 -443.51196 8352357
337.26999 132.08 -443.70001 8482663
322.70999 133.96001 -443.03 8423044
323.56332 133.85667 -443.20337 9606804
324.53833 133.81166 -443.36169 9672598
325.5914 133.80856 -443.48999 9935256
326.63333 133.83 -443.46335 9802383
327.6275 133.86499 -443.28497 9340286
328.435 133.97 -443.26999 9143672
329.34 133.91501 -443.08502 9340022
330.64502 133.825 -443.51749 8419694
331.32285 133.63571 -443.5957 8352871
332.565 133.28 -443.57251 8287078
333.52667 133.17667 -443.81998 8155749
334.10001 133 -443.67001 8549990
320.64999 134.825 -443.23999 8290176
321.35999 134.62666 -443.58334 7961721
322.69501 134.19 -443.685 8619910
323.60669 134.03001 -443.69003 9474957
327.54001 134.045 -443.95001 9670023
328.54333 134.12001 -443.76669 9209465
329.45749 134.125 -443.67749 9208179
317.55002 135.87666 -443.53 8619907
318.30499 135.70999 -443.72 8881539
319.39502 135.345 -443.56003 8684417
320.20502 135.04999 -443.48499 8421247
313.98999 136.85001 -443.37 8290943
314.47 136.77 -443.63 8421760
315.508 136.436 -443.42001 8552829
316.59668 136.12334 -443.46335 8618882
317.26001 136.03999 -443.94 8552832
309.68002 137.81334 -443.32666 9014411
310.49603 137.658 -443.452 8883337
311.5 137.43666 -443.42334 8882569
312.40668 137.25333 -443.55997 8487554
313.14999 137.11 -443.66998 8027776
303.52664 138.86333 -443.20999 9737106
304.42001 138.76666 -443.45334 9606034
305.53751 138.565 -443.4325 9803925
306.60999 138.38501 -443.41998 10131349
307.53665 138.27333 -443.57999 9736840
308.57501 138.06 -443.45001 9538952
309.26999 138 -443.89999 9079431
298.94 139.92999 -443.47501 8618104
299.35501 139.76001 -443.245 8684408
300.60001 139.48334 -443.6333 8881538
301.48999 139.20499 -443.245 9145738
302.42999 139.11499 -443.52502 9211787
303.34 139.03999 -443.84 9671046
232.8 140.89999 -443.06 6117197
233.524 140.86101 -443.21002 6379081
234.42105 140.83264 -443.44687 6248010
235.42548 140.80545 -443.59998 6248271
236.51799 140.72501 -443.49496 6445132
237.42668 140.62 -443.57999 6708562
238.48999 140.60001 -443.6275 6905941
239.592 140.642 -443.38998 7168341
240.60001 140.715 -443.39749 7103319
241.69 140.735 -443.52002 7301215
242.56999 140.73332 -443.46664 7301216
243.42429 140.73286 -443.33856 7367262
244.50284 140.72 -443.46286 6906969
245.37166 140.74167 -443.57166 6249296
246.52 140.75334 -443.64001 5985611
247.54001 140.77499 -443.79999 6117449
248.32666 140.90666 -443.69336 6645592
295.56 140.91501 -443.29498 8487031
296.51663 140.66333 -443.38998 8682867
297.39664 140.43333 -443.58334 8617328
298.22498 140.16501 -443.51001 8684153
248.37 141.075 -443.26001 7631725
249.53999 141.1725 -443.55499 7828843
250.53 141.35251 -443.76501 7303781
251.41429 141.57713 -443.55289 7960945
252.36501 141.70168 -443.55667 8027770
253.38802 141.92599 -443.754 7764850
291.63998 141.91333 -443.26001 8880759
292.3475 141.77 -443.4025 8684151
293.37 141.53751 -443.54001 8617845
294.55002 141.21001 -443.44666 8552565
295.23999 141.07001 -443.79999 8551792
253.8325 142.0625 -443.60251 8159869
254.49446 142.16888 -443.51776 8159610
255.5 142.21999 -443.61166 8553602
256.55002 142.375 -443.55371 5462099
257.49249 142.63501 -443.375 8752000
258.5 142.88499 -443.25 8817025
259.25 142.97 -443.25 8620162
285.45999 142.96001 -443.47 8619904
286.57599 142.81801 -443.55402 8750720
287.51666 142.67 -443.56497 8684924
288.36801 142.552 -443.54199 8815484
289.85498 142.315 -443.55499 8487797
290.72501 142.14499 -443.535 8814707
291.28 142.03999 -443.73999 8420205
259.75 143.03999 -443.25 8816516
260.45001 143.17001 -443.505 8488573
261.5914 143.27715 -443.56 7304301
262.51001 143.38667 -443.58334 9013120
263.25 143.45 -443.5 8685702
268.5 143.83499 -443.25 9277579
269.5 143.815 -443.25 9802124
270.5 143.8 -443.25 9606285
271.55399 143.79399 -443.45801 9342341
272.53 143.81334 -443.56332 9014406
273.38669 143.83667 -443.44998 9079946
274.34335 143.83 -443.57333 8817030
275.43286 143.75572 -443.48145 8686473
276.36667 143.69 -443.68335 8948358
277.35001 143.64 -443.57001 9342086
278.32333 143.59666 -443.50668 9079427
279.38 143.545 -443.48999 8948102
280.52667 143.46001 -443.38333 9014149
281.70599 143.354 -443.47998 8947329
282.40997 143.28999 -443.655 8882310
283.47665 143.17668 -443.57498 8947584
284.466 143.06599 -443.47998 9013121
288.5 89.960007 -442.25 3549219
289.45667 90.043335 -442.18002 3614237
290.5 90.169998 -442.25 3417368
291.45334 90.246674 -442.14001 0
292.39252 90.377502 -442.49249 2762005
293.44751 90.482498 -442.5325 3683109
294.42249 90.612503 -442.51001 4078640
295.42996 90.783333 -442.50333 3949875
296.31332 90.936668 -442.37997 3484706
296.435 91.059998 -442.82501 3354139
297.48337 91.183327 -442.44336 3418902
298.60251 91.392502 -442.435 3089436
299.57251 91.607498 -442.66498 3154201
300.418 91.753998 -442.51202 2826264
301.55002 91.953331 -442.44666 2760732
302.49399 92.099998 -442.51801 2695705
303.32669 92.233337 -442.41 2435101
304.54248 92.472496 -442.4975 2829345
305.42334 92.666664 -442.57333 3223341
306.23999 92.889999 -442.79999 2434592
306.57001 93.010002 -442.19 2302748
307.42334 93.296669 -442.59335 2497818
308.35498 93.645004 -442.54999 2169619
309.04999 93.910004 -442.48001 1643282
309.73001 94.18 -442.595 1907476
310.56332 94.473328 -442.63669 1972756
311.54111 94.704437 -442.55002 1710613
312.42334 94.839996 -442.41333 2234388
313.01999 94.849998 -442.73001 2564635
313.52502 95.014999 -442.345 2367259
314.51498 95.247498 -442.35748 1906964
315.63501 95.614998 -442.52335 2169618
316.375 95.895004 -442.61499 2957851
316.95999 96.040001 -442.85999 2563092
317.51999 96.244995 -442.64001 2169619
318.64502 96.604996 -442.41998 2432530
319.57501 96.834999 -442.495 2762006
320.01999 96.849998 -442.79999 3088659
321.155 97.324997 -442.345 3221018
322.26501 97.695 -442.315 2694673
323.12 97.839996 -442.64999 2235661
323.66 98.193336 -442.38333 2366483
324.65335 98.473335 -442.69336 3089690
325.13501 98.869995 -442.38 2760986
325.60501 99.125 -442.35748 2171934
326.53 99.562859 -442.58002 2367511
327.16498 99.834999 -442.85999 2958889
327.67114 100.57889 -442.31555 3221532
328.245 100.85 -442.58749 3089693
328.63998 101.344 -442.336 3550240
329.328 101.62801 -442.54401 3680801
330.10001 101.86 -442.82999 4273196
329.82001 102.295 -442.27499 4010788
330.48999 102.488 -442.508 5061936
331.28 102.82 -442.69 4275490
331.60199 103.276 -442.41 5127211
332.52625 103.5725 -442.6413 4864041
333.25998 103.85667 -442.72998 4600617
332.77499 104.145 -442.08502 4337439
333.49832 104.38999 -442.21167 4206369
334.41202 104.51399 -442.51801 3878432
335.52252 104.66875 -442.74374 3746845
336.20999 104.76 -442.92999 3876892
335.53003 105.12 -442.29999 4074782
336.53998 105.325 -442.48001 3745307
337.52335 105.63667 -442.67001 3352354
338.53998 106.28999 -442.42499 3812897
339.50668 106.62333 -442.49332 4601382
340.38 106.87 -442.62668 5454118
340.85999 107.27 -442.29999 5652262
341.48999 107.44 -442.45001 4470051
342.38 107.74751 -442.5925 3484956
343.22501 107.915 -442.82501 3091236
342.76999 108.13 -442.26999 3485733
343.52002 108.25001 -442.47336 3223596
344.53671 108.62 -442.32666 2565413
345.44501 108.7 -442.48251 2433562
346.43332 108.78666 -442.72998 2367774
347.01001 108.83 -442.95999 2500125
346.47 109.07 -442.19 2827034
347.62 109.33334 -442.31998 2630680
348.53003 109.704 -442.33203 2893592
349.19 109.81 -442.72501 2499868
349.63 110.37222 -442.32336 3418658
350.35602 110.782 -442.61603 2828839
350.59689 111.31438 -442.32495 3551015
351.13 111.674 -442.65802 3354665
351.56299 112.59599 -442.44598 3814186
351.82333 113.33332 -442.30667 3683114
352.215 113.6975 -442.80002 4208428
351.88501 114.425 -442.155 4340276
352.20401 114.478 -442.63599 4077872
351.84799 115.35201 -442.25595 4275250
352.21667 115.44334 -442.79004 4340533
351.66663 116.53167 -442.45999 4209716
352.17999 116.27 -442.98001 4602933
350.89999 117.55 -442.01999 4207915
351.52002 117.41666 -442.59 4472115
350.66748 118.47 -442.17499 5195322
351.46249 118.505 -442.80249 5655617
350.5675 119.4925 -442.27002 6707531
351.44501 119.39 -442.85501 5984584
350.60498 120.41499 -442.25 6707790
351.3125 120.645 -442.67999 6314060
350.38 121.635 -442.03 6643279
351.39334 121.33667 -442.68002 6247753
350.6167 122.55666 -442.24667 7629153
351.39502 122.4075 -442.73752 6970448
350.37833 123.55834 -442.29333 8878956
351.11499 123.52499 -442.76501 8088416
349.48001 124.67333 -442.16666 10260612
350.38663 124.33334 -442.55664 9075054
351 124.09 -442.85001 8353900
348.48331 125.71 -442.20999 10393223
349.64001 125.55 -442.73999 9339774
350.26999 125.13 -442.85999 8879731
346.78 126.82001 -442.12 10326659
347.6073 126.68909 -442.41183 10260862
348.3757 126.64571 -442.7457 9668470
349.34 126.06 -442.88 9470836
345.41666 127.79 -442.46335 8283986
346.60583 127.4075 -442.56082 8090207
347.45499 127.26416 -442.75253 8615779
348.06 127.15 -442.89001 9074538
342.72 128.81 -442.14001 7694940
343.46201 128.614 -442.37003 7826013
344.25998 128.3875 -442.57751 7891545
345.29999 128.17999 -442.95001 7757651
341.57251 129.70999 -442.47748 7628377
342.28665 129.31334 -442.47998 7431772
338.79999 130.69 -442.14999 8088928
339.89001 130.54001 -442.55499 7564380
340.60001 130.235 -442.53998 7694425
341.12 130 -442.54001 7628373
335.60001 131.97 -442.42999 8418145
336.38556 131.62111 -442.30112 8287338
337.49667 131.34332 -442.50333 8024420
338.89001 131.09 -442.88 7826010
331.625 132.80499 -442.06 8287337
332.36334 132.76666 -442.33667 8615268
333.52667 132.67 -442.68002 8418663
334.44 132.465 -442.71002 8287079
335.35999 132.23001 -442.76001 8549221
322.52332 133.80333 -442.38663 8289919
323.78 133.49001 -442.43668 9803672
324.54666 133.35333 -442.31665 9869460
325.39999 133.425 -442.51999 9935514
326.58197 133.47 -442.52197 9604490
327.45502 133.52499 -442.44 8814459
328.48602 133.646 -442.50201 8748664
329.39398 133.49802 -442.28998 8879986
330.52499 133.3875 -442.55002 8747630
331.3175 133.16501 -442.57001 8287849
332.32999 133.05 -442.91 8091239
320.40002 134.71999 -442.44998 8553598
321.40002 134.34001 -442.57333 8486266
322.23999 134.11 -443 8225151
316.42001 135.86 -442.34 9144711
317.25 135.73 -442.64001 8817029
318.44666 135.37334 -442.56665 9079687
319.41333 135.03333 -442.37668 9145223
312.35999 136.89999 -442.14001 9015182
313.30334 136.79999 -442.55667 9144713
314.52997 136.48248 -442.56253 9079945
315.64502 136.14001 -442.48999 9144708
316.29001 136.07001 -442.89001 8947844
307.595 137.89999 -442.19501 10131599
308.73999 137.78999 -442.42999 9868170
309.38333 137.67334 -442.51334 9473938
310.46832 137.40833 -442.39835 9276810
311.48001 137.24001 -442.58499 8751494
312.245 137.105 -442.70502 8882313
301.48001 138.99001 -442.32001 9082002
302.42001 138.89 -442.60001 9803156
303.33002 138.675 -442.38501 9803666
304.42001 138.54001 -442.61169 9868949
305.45499 138.375 -442.69247 10132377
306.5625 138.1575 -442.54501 10132375
307.215 138.105 -442.685 10131339
308.01001 138.00999 -442.76999 9932940
298.36499 139.955 -442.64999 9012086
299.57001 139.55334 -442.56998 8947326
300.54498 139.235 -442.42001 9209988
301 139.21001 -442.82001 9013124
228.30669 140.90332 -442.18665 6378831
229.59001 140.86501 -442.27335 6707015
230.577 140.795 -442.30103 6642255
231.47845 140.80229 -442.48694 5655104
232.40999 140.73334 -442.43332 6575690
233.49889 140.70778 -442.51334 6841430
234.46399 140.70399 -442.68198 6444618
235.375 140.69333 -442.63998 6445131
236.47751 140.71249 -442.52499 6837321
237.39 140.6925 -442.5025 6903368
238.53751 140.6825 -442.54248 6773067
239.48668 140.70667 -442.68335 7102289
240.36333 140.79668 -442.45667 7298899
241.43666 140.84334 -442.47 7497052
242.76001 140.84 -442.70502 7301726
243.64998 140.85333 -442.66333 7563616
244.73 140.92 -442.53 7301720
245.25 140.89 -442.98999 7367004
246.14999 140.94 -442.98999 7300441
294.67001 140.96001 -442.31 9603966
295.44 140.78999 -442.45999 9209725
296.45999 140.55 -442.65332 9078140
297.505 140.22 -442.57001 9275003
226.565 141.215 -442.1575 6182735
229.5 141.13499 -442.75 6313553
230.5 141.045 -442.75 6379857
245.54001 141.01999 -442.26501 7630180
246.345 141.10501 -442.22998 7894633
247.444 141.164 -442.552 7894635
248.44334 141.32166 -442.44336 8684152
249.54749 141.49251 -442.38248 8882562
250.57666 141.63445 -442.56 8553342
251.34402 141.832 -442.43399 8683645
252.14 141.92 -442.84 8619392
290.91998 141.905 -442.375 9670784
291.64999 141.78 -442.57999 9341565
292.534 141.59799 -442.702 9341569
293.535 141.35001 -442.67999 9275771
294.30002 141.11 -442.54001 9472638
252.42499 142.045 -442.38501 8948876
253.43999 142.13802 -442.67596 8817804
254.47749 142.35501 -442.5 8949896
255.57713 142.53 -442.52856 9212554
256.52798 142.724 -442.444 9212556
257.67749 142.875 -442.60248 9409168
258.505 142.98001 -442.79501 9145988
284.49667 142.94333 -442.20334 9539974
285.40665 142.87666 -442.59164 9342341
286.48499 142.7225 -442.47 9343115
287.67999 142.53999 -442.39001 9539206
288.35999 142.44667 -442.54333 9342854
289.63 142.205 -442.46002 9539207
290.495 142.05 -442.625 9407361
258.53497 143.0975 -442.23502 9278095
259.53799 143.172 -442.604 8948871
260.392 143.326 -442.54401 8818311
261.35001 143.465 -442.46252 8948871
262.44 143.61499 -442.4675 9015175
263.48428 143.73428 -442.46143 6317152
264.36667 143.77333 -442.41666 6053465
265.67499 143.78 -442.36249 9737097
266.58499 143.79749 -442.42999 9277580
267.55002 143.81667 -442.60336 9146251
268.48251 143.8125 -442.54251 9409164
269.50998 143.79665 -442.42334 9934477
270.43201 143.78801 -442.40201 10000016
271.51248 143.78 -442.5275 9475213
272.33002 143.76799 -442.40201 9672333
273.37201 143.774 -442.39398 9540235
274.53998 143.78 -442.37 9408390
275.51001 143.73001 -442.39502 9539209
276.39252 143.6675 -442.51749 9540232
277.47501 143.60001 -442.39502 9932935
278.56332 143.55333 -442.53665 9342599
279.51666 143.47667 -442.43335 9473673
280.44 143.405 -442.52002 9342599
281.47333 143.31667 -442.54996 9276289
282.47998 143.22 -442.595 9342853
283.48666 143.11 -442.55002 9342597
284.14999 143.05 -442.73999 9276033
282.89001 88.769997 -441.25 3024925
283.25 88.910004 -441.25 3156771
283.76001 89.040001 -441.26001 3090727
284.58334 89.123329 -441.41666 3287843
285.58167 89.231667 -441.35168 1051917
286.5 89.514999 -441.25 3220507
287.58401 89.736 -441.47998 1183500
288.34998 89.802002 -441.48798 1249040
289.54001 89.900002 -441.51001 3613981
290.41501 89.915001 -441.14502 3417628
290.57001 90.050003 -441.70001 3482907
291.39499 90.080002 -441.39999 1643534
292.492 90.201996 -441.46002 3813404
293.38501 90.28833 -441.44168 3419166
294.43668 90.43 -441.37332 3550506
295.37799 90.621994 -441.5 3620399
296.48248 90.847496 -441.50751 3418137
297.45667 91.059998 -441.59335 3088401
298.42667 91.273323 -441.77002 3088922
299.59399 91.526001 -441.33804 2956818
300.63501 91.759995 -441.55499 2824982
301.50668 91.940002 -441.5 2563864
302.422 92.099998 -441.56601 2497554
303.39169 92.296661 -441.5083 2169614
304.75 92.599998 -441.47 2105634
305.62332 92.860008 -441.33667 2366480
306 92.959999 -441.32001 2497813
306.64001 93.120003 -441.5 2300176
307.52002 93.399994 -441.57251 1841938
308.41666 93.736664 -441.58334 1972498
309.58667 94.253334 -441.50333 1709842
310.54999 94.630005 -441.69 1775892
311.285 94.899994 -441.51001 1580053
311.62 95.099998 -441.12 1907224
312.33752 95.087494 -441.51999 2038293
313.48999 95.212494 -441.655 2366481
314.53665 95.486664 -441.55667 2169621
315.33798 95.755997 -441.53604 2103568
315.98001 96.010002 -441.48999 2366485
316.66 96.244995 -441.56 2827025
317.47501 96.555 -441.465 2630169
318.34 96.779999 -441.57001 2631981
318.92001 97.010002 -441.41 2698270
319.48499 97.262497 -441.22 2761499
320.34668 97.363335 -441.63 3023386
321.46002 97.68 -441.72998 3287065
322.26501 98.240005 -441.27002 2958878
323.45602 98.599991 -441.49799 3089177
324.32001 98.800003 -441.815 2760983
324.7525 99.317505 -441.35748 2957591
325.38715 99.524292 -441.54144 2499611
326.38 99.879997 -441.88 2170905
326.6925 100.33 -441.5975 2696225
327.43201 100.848 -441.70599 3418917
327.49249 101.39 -441.27252 3682851
328.21503 101.54 -441.75 3878435
328.57333 102.12 -441.51999 4075811
329.42334 102.47166 -441.83334 3944226
330.20001 102.98 -441.85999 5259818
329.57501 103.12 -441.31 4470053
330.62167 103.47333 -441.62332 5455919
331.28 103.56 -441.94 5785137
330.82001 104.09 -441.13 4402966
331.54333 104.16333 -441.4733 4403492
332.48627 104.46625 -441.63498 4141348
333.28665 104.63334 -441.88 3944486
333.52335 105.19666 -441.35999 4142375
334.48199 105.394 -441.55795 4404005
335.51501 105.66 -441.62 4535078
336.39252 105.8375 -441.7825 3877400
336.41998 106.245 -441.26001 4337438
337.60999 106.55 -441.48999 3352864
338.51999 106.78 -441.66 3748654
338.56 107.175 -441.10498 4142634
339.54999 107.42333 -441.33667 5259315
340.58002 107.69286 -441.56003 6113076
341.51001 107.88 -441.85001 4996140
340.64499 108.11 -441.13 5982777
341.53748 108.3125 -441.39001 4800301
342.48001 108.7 -441.4375 3945258
343.43335 108.76666 -441.73001 3421222
344.39999 108.955 -441.78 2302752
342.57999 109.04 -441.14001 4012079
343.20001 109.27 -441.12 3420712
344.55499 109.25249 -441.41501 3090977
345.42001 109.38429 -441.42145 4338215
346.48337 109.58334 -441.42001 4337178
347.715 109.72701 -441.74701 3878435
348.17001 109.895 -441.79251 3682073
347.64752 110.26125 -441.15375 6176031
348.47998 110.46901 -441.44244 5388580
349.39169 110.73083 -441.74167 4141865
348.78601 111.408 -441.14801 6838850
349.44421 111.52473 -441.40054 7164477
350.25461 111.64078 -441.75385 5849920
348.59998 112.54601 -441.21732 6509892
349.56061 112.46942 -441.40002 7759956
350.55283 112.48 -441.59354 8742992
351.19333 112.77223 -441.81445 5061160
347.75003 113.69636 -441.17819 4739407
348.45413 113.51834 -441.47836 7038035
349.5083 113.50056 -441.55945 7233619
350.53186 113.46063 -441.48123 5787458
351.35355 113.45529 -441.71942 3748390
347.74057 114.3079 -441.22635 5264981
348.33716 114.67477 -441.30045 8154979
349.49371 114.57481 -441.29001 7432533
350.62726 114.45668 -441.23831 4670009
351.45715 114.44571 -441.65714 3881521
348.51001 115 -441.07999 8751460
350.87668 115.4 -441.1467 4144175
351.28085 115.38333 -441.55502 4078386
350.686 116.578 -441.33398 3683115
351.11331 116.27334 -441.65665 4077099
349.60498 117.8 -441.095 4077610
350.33249 117.5125 -441.4975 3944999
349.55402 118.44199 -441.362 4537393
350.12997 118.46667 -441.78 4602675
348.96002 119.425 -441.26999 6904399
349.56555 119.34333 -441.62 6904912
350.09 119.2 -441.94 6773068
348.75333 120.36001 -441.15332 8352354
349.4075 120.34 -441.53003 8285790
350.07001 120.84 -441.87 7627609
348.82999 121.52 -441.10999 7432548
349.48499 121.47501 -441.48999 7103576
349.37668 122.42333 -441.46997 7892068
350.12 122.61 -441.94 8218724
347.98999 123.84 -441.01999 10787991
348.66 123.64 -441.32498 10588037
349.55832 123.46 -441.77832 9798778
347.64001 124.66333 -441.17001 12365729
348.42667 124.44833 -441.48499 11837584
349 124.23 -441.69 10458248
345.98999 125.94 -441.10999 12232348
346.62 125.745 -441.29001 12496278
347.45599 125.52201 -441.55997 13152922
345.285 126.55 -441.20001 9275259
346.20502 126.545 -441.65002 9998458
347.04999 126.18 -441.79999 12562843
343.51501 127.625 -441.23499 8419434
344.60999 127.475 -441.685 8615018
345.82001 127.17 -441.97 8025188
341.61499 128.87 -441.48499 7563865
342.50375 128.5575 -441.68625 7827038
343.35999 128.22 -441.815 8024416
339.44 129.82501 -441.315 7761246
340.59 129.44501 -441.51001 7826012
341.76001 129.125 -441.87 7825498
336.95999 130.74001 -441.23001 7958884
337.64001 130.59 -441.375 8089960
338.55499 130.32001 -441.47751 8089698
339.35999 130.15668 -441.68997 7958111
340.01999 130.03 -441.88 7826271
333.88501 131.765 -441.27499 8680811
334.65668 131.52 -441.23999 8549995
335.44165 131.46167 -441.52664 8615529
336.38501 131.245 -441.685 8287082
337.19 131.03999 -441.82999 8221023
323.64999 132.91 -441.25 9802132
324.35748 132.8575 -441.32001 10000793
325.47498 132.78 -441.19501 9802646
326.39499 132.895 -441.285 9209216
327.55499 132.94 -441.20001 8288362
328.51666 132.94 -441.12332 8551281
329.41666 132.81667 -441.10001 9208695
330.69 132.715 -441.45752 8812654
331.55331 132.51666 -441.51334 8747629
332.41165 132.31166 -441.5383 8681322
333.60999 132.24001 -441.92001 8418660
334.35001 132.08 -441.98999 8549229
321.82001 133.69 -441.25668 8157817
322.65332 133.41666 -441.56998 8289915
323.55667 133.11668 -441.59335 9473936
324.32501 133.11499 -441.82001 9804951
325.655 133.105 -441.82001 9933974
326.45999 133.12 -441.75 9275275
327.41 133.185 -441.70502 8485236
328.39249 133.245 -441.70251 8287340
329.33499 133.19167 -441.72668 9273459
330.60999 133.03999 -441.98999 8681070
318.42499 134.97501 -441.39502 9409166
319.685 134.6725 -441.52499 9210501
320.46997 134.42665 -441.60165 8946560
321.29001 134.06 -441.53 8421241
315.34665 135.86668 -441.51669 9211791
316.29498 135.55499 -441.41998 9079688
317.28 135.36 -441.595 9080719
310.815 136.92499 -441.28 9605775
311.53799 136.804 -441.39801 9671565
312.66998 136.48999 -441.32001 9737101
313.76501 136.20001 -441.28998 9737106
314.54333 136.18333 -441.73669 9539983
305.35001 137.83 -441.04001 9870493
306.46167 137.82335 -441.52332 10199198
307.48331 137.69667 -441.58667 10197912
308.52249 137.56 -441.64999 9999758
309.58334 137.29333 -441.49332 9802637
310.62 137.12 -441.64001 9146764
311.26999 137.07001 -441.91 9473679
300.54001 138.88 -441.04001 9276034
301.17999 138.86 -441.56 9474444
302.43668 138.60333 -441.60999 9803669
303.58002 138.32999 -441.44403 10000791
304.46249 138.17749 -441.51251 10000794
305.65002 138.02499 -441.71002 9871007
297.48337 139.92334 -441.38 9472896
298.72336 139.54333 -441.46335 9472385
299.53998 139.23999 -441.285 9079684
300.20999 139.12 -441.54999 9538436
223.75 140.83499 -441.13501 6512464
224.52832 140.72835 -441.19998 6511952
225.408 140.692 -441.284 6839373
226.4675 140.73625 -441.48877 6773583
227.498 140.63301 -441.57797 6904397
228.42403 140.554 -441.56699 7036244
229.52556 140.52112 -441.4989 7035470
230.47536 140.50693 -441.48694 7301733
231.49554 140.53667 -441.4278 6640710
