# .PCD v0.7 - Point Cloud Data file format
VERSION 0.7
FIELDS x y z rgba
SIZE 4 4 4 4
TYPE F F F U
COUNT 1 1 1 1
WIDTH 1160
HEIGHT 1
VIEWPOINT 0 0 0 1 0 0 0
POINTS 1160
DATA ascii
19.716667 10.63 -369.21167 4289750025
20.500456 10.414547 -369.31866 4289750025
21.500999 10.4965 -369.69949 4289750025
22.035 10.15 -369.91 4289750025
18.533636 11.611818 -369.1409 4293602473
19.551819 11.54 -369.52274 4289750025
20.333332 11.459049 -369.74615 4289750025
21.126669 11.183333 -369.93335 4289750025
18.461 12.514 -369.276 4293602473
19.320002 12.5 -369.79749 4279937291
15.76 13.89 -369.07999 4281278864
16.514999 13.915 -369.07001 4281278864
17.547501 13.691667 -369.1825 4285470882
18.527498 13.504166 -369.55582 4279937291
19.179001 13.477 -369.84003 4279937291
15.636429 14.597857 -369.16855 4281278864
16.470501 14.416499 -369.23206 4281278864
17.440001 14.509999 -369.40604 4285470882
18.553183 14.524548 -369.78271 4279937291
19.209999 14.1 -369.91 4279937291
14.8425 15.8375 -369.10251 4282488966
15.493157 15.495265 -369.30786 4282488966
16.550001 15.586667 -369.50732 4293602473
17.511431 15.414287 -369.685 4294662175
18.18 15.160001 -369.85602 4294662175
14.775999 16.472 -369.19199 4282488966
15.498127 16.43125 -369.63565 4282488966
16.356667 16.275 -369.80334 4294662175
17.18 16.190001 -370 4294662175
14.645 17.43 -369.33496 4282488966
15.410714 17.322144 -369.82147 4294662175
13.798183 18.629091 -369.3609 4284344950
14.295 18.506248 -369.72876 4284344950
12.955 19.895 -369.155 4284344950
13.440454 19.484093 -369.56177 4284344950
11.737778 20.67222 -369.28781 4284344950
12.522 20.410999 -369.29654 4284344950
13.470435 20.468262 -369.70215 4284344950
14.419523 20.428095 -369.76047 4294825791
15.03 20.440001 -369.89331 4294825791
11.829999 21.389999 -369.56665 4284344950
12.574641 21.486784 -369.70395 4284344950
13.498572 21.197142 -369.90854 4294825791
14.254 21.066 -369.88397 4294825791
11.824546 22.532728 -369.57181 4289837303
12.519616 22.477308 -369.74921 4289837303
130.65001 -116.57092 -368.21091 4285599585
130.64626 -115.57875 -368.17377 4293602473
129.78999 -114.7 -368.13 4293602473
105.86105 -87.525253 -368.11417 4293602473
106 -87.599998 -368.14001 4293602473
92.774284 -76.177139 -368.18716 4293168548
93.476425 -76.205711 -368.33926 4293168548
94.529999 -76.222504 -368.50125 4293168548
95.611107 -76.507233 -368.56335 4293168548
96.25222 -76.691109 -368.82336 4293168548
92.606247 -75.63813 -368.39188 4293168548
93.348335 -75.586662 -368.80835 4293168548
94.623329 -75.98333 -368.92667 4293168548
91.633331 -74.563332 -368.28003 4293602473
92.43 -74.574997 -368.70999 4293602473
90.444 -73.472 -368.17798 4293602473
91.199997 -73.68 -368.47 4293602473
89.739998 -72.209999 -368.39999 4281971952
90.482498 -72.792496 -368.50751 4281971952
91.349998 -72.800003 -368.97 4281971952
88.419998 -71.220001 -368.19 4284918723
89.354996 -71.43 -368.565 4281971952
90.290001 -71.68 -368.92999 4281971952
87.744995 -70.684998 -368.07501 4284918723
88.550003 -70.595001 -368.54498 4284918723
86.559998 -69.120003 -368.14001 4283419236
87.455002 -69.519997 -368.45996 4293602473
88.410004 -69.93 -368.79001 4284918723
84.739998 -68.769997 -368.10999 4283419236
85.949997 -68.380005 -368.04498 4283419236
86.550468 -68.37429 -368.53903 4283419236
87.380005 -68.489998 -368.91165 4293602473
86.602226 -67.761108 -368.72891 4282024261
85.561104 -65.53611 -368.23227 4293602473
75.679161 -53.505005 -368.22751 4293984537
76.121994 -53.5 -368.862 4293602473
74.75 -52.490002 -368.14499 4293984537
75.166664 -52.696667 -368.19336 4293984537
70.846672 -49.336666 -368.18002 4286533456
71.566879 -49.428127 -368.33313 4286533456
72.547142 -49.307148 -368.64142 4282242878
69.889999 -48.02 -368.07001 4286533456
70.637001 -48.601002 -368.28598 4286533456
71.41864 -48.701366 -368.76688 4286533456
72.318001 -48.91 -368.84399 4282242878
68.790001 -47.02 -368.01001 4286533456
69.696312 -47.343155 -368.33102 4286533456
70.302773 -47.659443 -368.53333 4286533456
71.029999 -47.599998 -368.95001 4286533456
67.858002 -46.183998 -368.19601 4289252554
68.521431 -46.375713 -368.48755 4289252554
69.473335 -46.691666 -368.69885 4286533456
70.019997 -46.75 -369 4286533456
67.716469 -45.522942 -368.3447 4289252554
68.245834 -45.415833 -368.84915 4289252554
66.785004 -44.135002 -368.14502 4293602473
67.48111 -44.531109 -368.41949 4293602473
68.264999 -44.653332 -368.90332 4289252554
65.546005 -43.415997 -368.11002 4286674310
66.518333 -43.543335 -368.46167 4293602473
67.324997 -43.772499 -368.77249 4293602473
64.589996 -42.238888 -368.31223 4287356381
65.463333 -42.345001 -368.67664 4287356381
66.296669 -42.624996 -368.85336 4287356381
62.83667 -41.466663 -368.08667 4294552617
63.540718 -41.633572 -368.22284 4294552617
64.386917 -41.713844 -368.53152 4287356381
65.1325 -41.8675 -368.91501 4287356381
61.837502 -40.272499 -368.16751 4286087645
62.453999 -40.503998 -368.31 4286087645
63.5625 -40.450001 -368.76999 4293602473
60.73 -39.220001 -368.06 4286087645
61.5 -39.625385 -368.24997 4286087645
62.321999 -39.605999 -368.59003 4286087645
63.180004 -39.689999 -368.91333 4286087645
59.970001 -38.27 -368.13 4286087645
60.561249 -38.658752 -368.20001 4286087645
61.486004 -38.637997 -368.50604 4286087645
62.369999 -38.612499 -368.90002 4289332051
59.700001 -37.560001 -368.25 4286087645
60.549995 -37.595001 -368.52502 4286087645
61.27 -37.438 -368.82199 4289332051
57.860001 -36.240002 -368.01001 4286976507
58.73 -36.583332 -368.23666 4293602473
59.525002 -36.48 -368.62 4293602473
60.306667 -36.843334 -368.76001 4293602473
57.704998 -35.432999 -368.202 4286976507
58.456001 -35.438 -368.577 4286976507
59.346668 -35.639999 -368.87003 4293602473
57.484997 -34.403748 -368.19501 4293602473
58.387501 -34.417503 -368.71127 4293602473
59.040001 -34.84 -368.98001 4293602473
56.716003 -33.290001 -368.19199 4291780967
57.5 -33.571999 -368.444 4291780967
58.329998 -33.830997 -368.83405 4293602473
55.98 -32.060001 -368.10001 4291780967
56.368 -32.478001 -368.32098 4291780967
57.220001 -32.810001 -368.72 4291780967
55.888336 -31.538332 -368.07999 4291780967
56.373337 -31.442669 -368.53268 4291780967
53.58857 -30.282856 -368.17142 4279765201
54.558254 -30.398695 -368.36652 4279765201
55.462265 -30.430452 -368.5368 4279765201
56.302307 -30.758461 -368.77771 4279765201
52.85667 -29.256668 -368.15332 4279765201
53.613636 -29.540907 -368.53821 4279765201
54.382221 -29.692223 -368.87442 4279765201
55.16 -29.99 -368.94 4279765201
51.684998 -28.17 -368.14001 4286142763
52.515713 -28.447861 -368.34357 4279765201
53.435001 -28.662502 -368.73627 4279765201
50.945 -27.465 -368.13501 4286142763
51.536671 -27.606668 -368.39835 4286142763
52.432499 -27.635002 -368.80499 4278604314
53.130001 -27.870001 -368.94 4279765201
49.810001 -26.1 -368.17001 4278604314
50.549999 -26.370001 -368.46286 4278604314
51.427505 -26.595003 -368.75751 4278604314
52.154999 -26.809999 -368.97501 4278604314
49.390915 -25.337273 -368.23364 4278604314
50.346664 -25.609167 -368.7825 4278604314
48.593815 -24.420475 -368.24478 4293602473
49.454998 -24.472502 -368.65414 4278604314
50.16 -24.870001 -368.92001 4278604314
47.837147 -23.455715 -368.11002 4293602473
48.47765 -23.52059 -368.45941 4293602473
49.255554 -23.450001 -368.86777 4278604314
47.58445 -22.413889 -368.23059 4293602473
48.497055 -22.610001 -368.64291 4294769980
49.110001 -22.875 -368.94 4294769980
45.786667 -21.188332 -368.2067 4294769980
46.455887 -21.480591 -368.43237 4294769980
47.355003 -21.677498 -368.76376 4294769980
48.16 -21.870001 -368.95999 4294769980
44.860001 -20.09 -368.26999 4280942641
45.563335 -20.421667 -368.49167 4294769980
46.326 -20.809999 -368.84601 4294769980
43.734001 -19.214001 -368.18402 4280942641
44.611584 -19.414209 -368.5679 4280942641
45.288334 -19.618334 -368.87167 4293602473
42.544727 -18.403154 -368.19791 4293602473
43.444996 -18.64625 -368.43625 4280942641
44.392944 -18.478235 -368.7659 4280942641
41.807148 -17.327145 -368.11429 4285163968
42.454708 -17.38353 -368.41879 4285163968
43.605183 -17.547777 -368.7504 4280942641
44.208576 -17.834286 -368.83856 4280942641
40.600624 -16.446251 -368.18439 4289175447
41.486668 -16.48625 -368.35715 4285163968
42.45364 -16.578184 -368.64865 4285163968
43.156666 -16.836668 -368.92667 4285163968
40.569088 -15.574091 -368.31454 4293602473
41.386497 -15.534998 -368.82651 4285163968
42.02 -15.93 -368.85999 4285163968
39.73 -14.133334 -368.18668 4289175447
40.400005 -14.529001 -368.56329 4289175447
41.200001 -14.7975 -368.94 4289175447
38.830002 -13.14 -368.01001 4289175447
39.531109 -13.53889 -368.25113 4289175447
40.346115 -13.472777 -368.76666 4289175447
38.830002 -12.505 -368.06 4290715828
39.53524 -12.388572 -368.32999 4290715828
40.569496 -12.483 -368.71298 4283793937
41.040001 -12.675 -368.94 4283793937
36.849998 -11.09 -368.01001 4288615492
37.534115 -11.261765 -368.23999 4288615492
38.591766 -11.427059 -368.52466 4288615492
39.458797 -11.53 -368.58438 4291757725
40.414669 -11.709333 -368.78668 4291757725
35.767998 -10.122 -368.18799 4288615492
36.512402 -10.494399 -368.29199 4288615492
37.64632 -10.545263 -368.6084 4288615492
38.314281 -10.68 -368.86929 4280592837
39.246002 -10.858 -368.87799 4291757725
34.724998 -9.2474995 -368.09253 4288615492
35.380669 -9.5393333 -368.26401 4288615492
36.560997 -9.493 -368.63602 4288615492
37.349998 -9.6136837 -368.84998 4293602473
34.486004 -8.4233341 -368.13864 4288615492
35.524998 -8.4800005 -368.56503 4288615492
36.243332 -8.5616665 -368.875 4293602473
33.892002 -7.2299995 -368.21298 4281887083
34.417778 -7.4561114 -368.36218 4281887083
35.631176 -7.4594116 -368.69824 4280329641
36.1175 -7.4825001 -368.89499 4280329641
33.543327 -6.4895239 -368.32047 4281887083
34.411667 -6.5794444 -368.79001 4281887083
35.517693 -6.6823077 -368.85922 4281887083
36.126663 -6.7633338 -368.97336 4281887083
31.766665 -5.2166667 -368.06665 4278431271
32.7575 -5.46 -368.22998 4281887083
33.438824 -5.4929419 -368.60236 4281887083
34.169998 -5.9499998 -368.94 4281887083
30.802002 -4.2379999 -368.22601 4293072995
31.460001 -4.5288892 -368.30447 4293072995
32.680908 -4.3927274 -368.64001 4293602473
33.295334 -4.4993334 -368.81799 4293602473
30.523001 -3.4449997 -368.38501 4293072995
31.41625 -3.6118755 -368.745 4293072995
32.59 -3.8166666 -368.92667 4293602473
29.915001 -2.5749998 -368.17499 4293072995
30.58182 -2.5663638 -368.66638 4293072995
31.236666 -2.8666668 -368.94333 4293602473
28.860001 -1.08 -368.04999 4293001597
29.6 -1.65 -368.26999 4293001597
30.25 -1.39 -368.78 4293602473
28.305 -0.33499998 -368.12 4293001597
29.33 -0.63999999 -368.51001 4293001597
27.727142 0.71142864 -368.12717 4293001597
28.43 0.41749999 -368.42249 4293001597
29.200001 0.28 -368.81 4293001597
26.869999 1.7874999 -368.10498 4288410197
27.443527 1.5941174 -368.2753 4288410197
28.261112 1.3788888 -368.66336 4288410197
25.598421 2.6894736 -368.20001 4288410197
26.5375 2.4912498 -368.46542 4288410197
27.310001 2.4311111 -368.76889 4288410197
23.473333 3.8033333 -368.06168 4293602473
24.52 3.4599998 -368.19501 4293602473
25.59182 3.4072726 -368.65363 4288410197
26.341429 3.27 -368.86859 4293602473
22.654444 4.6166668 -368.15994 4280307712
23.463499 4.5650001 -368.26102 4293602473
24.495556 4.4855556 -368.54892 4293602473
25.417501 4.2775002 -368.91751 4293602473
21.854 5.7120004 -368.09003 4280307712
22.543335 5.5358329 -368.37415 4280307712
23.503637 5.4018178 -368.54364 4293602473
24.301666 5.3799996 -368.84335 4293602473
21.849997 6.3999991 -368.16855 4280307712
22.3475 6.4812503 -368.41309 4280307712
23.344444 6.5444441 -368.77667 4293602473
21.498949 7.6157894 -368.26212 4289750025
22.459286 7.5021429 -368.72858 4287011442
23.226 7.2289991 -368.87601 4287011442
19.65 8.9049997 -368.10999 4293602473
20.525333 8.6066656 -368.25534 4289750025
21.343 8.3959999 -368.64999 4289750025
18.557999 9.8120003 -368.20801 4293602473
19.464998 9.3464279 -368.3143 4293602473
20.409168 9.3066664 -368.715 4289750025
16.790001 10.7125 -368.13251 4293602473
17.437368 10.594738 -368.38791 4293602473
18.389999 10.602 -368.68799 4293602473
19.379999 10.33 -368.88 4289750025
16.582857 11.642858 -368.22287 4279411191
17.460001 11.533601 -368.62119 4293602473
18.145 11.3375 -368.9325 4293602473
15.621478 12.701483 -368.32184 4281278864
16.529165 12.48 -368.44165 4279411191
17.621252 12.516251 -368.70874 4293602473
18.02 12.36 -368.89999 4293602473
14.940001 13.535 -368.12 4281278864
15.333 13.5395 -368.60101 4281278864
16.470835 13.428333 -368.84583 4281278864
17.360909 13.24 -368.87088 4285470882
14.755791 14.518949 -368.37842 4281278864
15.105714 14.22 -368.73145 4281278864
13.8425 15.795 -368.13748 4282488966
14.369446 15.448892 -368.51718 4282488966
12.776668 16.766666 -368.07999 4282488966
13.494444 16.573334 -368.24942 4282488966
14.316 16.32 -368.74002 4282488966
12.649 17.497 -368.216 4282488966
13.445 17.543573 -368.58859 4282488966
14.11 17.120001 -368.82001 4282488966
11.783333 18.57 -368.12668 4293602473
12.464375 18.586876 -368.35126 4293602473
13.274 18.491001 -368.798 4293602473
11.8125 19.58375 -368.22751 4284344950
12.506 19.5252 -368.62762 4284344950
13.09 19.310001 -368.97 4284344950
11.823332 20.17 -368.72778 4284344950
12.14 20.136665 -368.88998 4284344950
128.7 -117.25286 -367.12857 4293602473
129.40143 -117.61356 -367.38004 4285599585
130.13332 -117.18 -367.81665 4285599585
126.53 -116.04 -367.01001 4293602473
127.84 -116.32333 -367.10001 4293602473
128.53609 -116.57111 -367.32776 4293602473
129.47693 -116.56922 -367.60156 4285599585
130.19 -116.46555 -367.85779 4285599585
126.26 -115.83 -367.01001 4293602473
127.8325 -115.5925 -367.035 4293602473
128.51865 -115.502 -367.31934 4293602473
129.47588 -115.42472 -367.66586 4293602473
130.22691 -115.59615 -367.86462 4293602473
128.57668 -114.48905 -367.33569 4280364058
129.17499 -114.835 -367.73248 4280364058
126.49866 -113.60802 -367.33197 4293602473
127.47499 -113.69 -367.12625 4280364058
128.15143 -113.82429 -367.28143 4280364058
105.65896 -87.578278 -367.74966 4293602473
93.720001 -77.074997 -367.09 4285868394
94.578751 -77.153748 -367.29623 4285868394
95.159996 -77.165001 -367.465 4285868394
91.755722 -76.206436 -367.37997 4292875534
92.436813 -76.426819 -367.565 4292875534
93.354378 -76.720627 -367.39313 4285868394
94.517509 -76.777496 -367.64749 4285868394
95.140007 -76.811668 -367.755 4285868394
90.824997 -75.464996 -367.14999 4292875534
91.531006 -75.634995 -367.56799 4292875534
92.119995 -75.910004 -367.89001 4292875534
89.543999 -74.427994 -367.15997 4293602473
90.400002 -74.564003 -367.56396 4293602473
88.690002 -73.533333 -367.25 4287913623
89.559998 -73.415001 -367.745 4293602473
90.029999 -73.660004 -367.88 4293602473
87.502502 -72.334999 -367.1575 4287913623
88.263336 -72.583336 -367.44998 4293602473
89.029999 -72.470001 -367.92001 4293602473
86.752861 -71.377144 -367.13998 4287913623
87.283333 -71.418335 -367.45166 4287913623
88.255005 -71.75 -367.845 4284918723
86.432228 -70.529999 -367.3317 4287913623
87.089996 -70.580002 -367.745 4287913623
85.555 -69.394997 -367.57059 4283419236
86.237267 -69.56636 -367.76816 4283419236
84.869003 -68.327003 -367.80798 4283419236
85.381821 -68.485001 -367.79318 4283419236
86.099998 -68.849998 -367.98001 4283419236
84.75 -67.860001 -367.495 4283419236
85.518097 -67.493813 -367.60281 4283419236
85.370003 -66.491997 -367.61267 4293602473
72.966667 -54.306667 -367.07666 4284019785
73.393639 -54.279091 -367.18231 4284019785
74.440498 -54.420502 -367.20258 4293602473
72.665718 -53.168571 -367.14005 4284019785
73.54631 -53.468887 -367.21219 4284019785
74.534203 -53.518951 -367.46631 4293984537
75.167 -53.466999 -367.76602 4293984537
71.818336 -52.540005 -367.11169 4284019785
72.493813 -52.499523 -367.37906 4284019785
73.464005 -52.517998 -367.57947 4284019785
74.458122 -52.796871 -367.7363 4293984537
75.25 -52.990002 -367.97 4293984537
70.910004 -51.040001 -367.09 4286533456
71.71875 -51.418129 -367.22443 4284019785
72.419998 -51.608437 -367.50317 4284019785
73.019997 -51.900002 -367.75 4284019785
69.709999 -50.245003 -367.125 4286533456
70.608826 -50.598236 -367.30234 4286533456
71.502815 -50.355629 -367.71622 4293602473
72.11834 -50.478333 -367.85837 4293602473
68.688576 -49.331429 -367.14142 4286533456
69.443336 -49.430832 -367.42331 4286533456
70.382858 -49.522144 -367.78427 4286533456
67.827003 -48.357002 -367.16699 4286533456
68.518181 -48.534546 -367.42322 4286533456
69.545494 -48.591499 -367.8295 4286533456
70.216667 -48.723331 -367.93665 4286533456
67.520622 -47.367496 -367.26437 4292168244
68.585281 -47.451763 -367.74881 4286533456
69.211998 -47.752003 -367.92801 4286533456
66.719994 -46.505714 -367.10147 4292168244
67.568665 -46.633327 -367.66202 4289252554
68.386665 -46.906666 -367.93668 4286533456
66.622314 -45.519615 -367.25348 4286674310
67.243637 -45.539997 -367.75906 4289252554
64.809998 -44.139999 -367.14001 4286674310
65.560356 -44.498966 -367.38828 4286674310
66.395927 -44.595184 -367.61926 4293602473
67.092499 -44.895 -367.86502 4293602473
63.546665 -43.210003 -367.17667 4294552617
64.547142 -43.481434 -367.44928 4286674310
65.311996 -43.845005 -367.78201 4286674310
61.900002 -42.154999 -367.16 4294552617
62.604111 -42.474121 -367.37524 4294552617
63.436672 -42.443336 -367.74496 4294552617
64.261429 -42.675713 -367.86572 4287356381
61.669998 -41.463333 -367.34 4294552617
62.314003 -41.638 -367.70798 4294552617
63.09 -41.959999 -367.98001 4294552617
60.450001 -40.217503 -367.2775 4286087645
61.355999 -40.414001 -367.76999 4286087645
58.880001 -39.246666 -367.12997 4286087645
59.529999 -39.360001 -367.306 4286087645
60.399998 -39.564442 -367.68442 4286087645
58.665562 -38.59222 -367.35556 4286087645
59.384663 -38.663998 -367.70468 4286087645
57.665005 -37.434998 -367.21667 4288619569
58.471424 -37.481426 -367.64285 4286087645
59.195 -37.779999 -367.935 4286087645
56.603333 -36.333332 -367.16666 4286976507
57.441109 -36.454441 -367.67111 4286976507
58.080002 -36.689999 -367.89001 4286976507
55.691666 -35.279999 -367.20166 4293602473
56.555836 -35.578335 -367.50833 4286976507
57.16666 -35.574997 -367.88669 4286976507
55.59375 -34.477501 -367.28998 4293602473
56.546001 -34.564003 -367.74899 4293602473
54.639999 -33.27 -367.07001 4293602473
55.340008 -33.394615 -367.29999 4291780967
56.309998 -33.576 -367.85602 4291780967
53.560005 -32.441002 -367.11801 4293602473
54.400993 -32.524006 -367.30798 4293602473
55.440838 -32.51083 -367.65918 4291780967
51.809998 -31.184999 -367.03 4280929835
52.607502 -31.504999 -367.22623 4280929835
53.494217 -31.512104 -367.55527 4293602473
54.437222 -31.408333 -367.7261 4293602473
55.34222 -31.563334 -367.81888 4291780967
51.581112 -30.503334 -367.15662 4280929835
52.554543 -30.607271 -367.56091 4280929835
53.388336 -30.709999 -367.88333 4279765201
54.5425 -30.877501 -367.95502 4279765201
50.885002 -29.220001 -367.04498 4286142763
51.509998 -29.374996 -367.35199 4286142763
52.392857 -29.520002 -367.81284 4279765201
49.675713 -28.39143 -367.0957 4278769604
50.505554 -28.451111 -367.31223 4286142763
51.341999 -28.580999 -367.62598 4286142763
52.209999 -28.865 -367.94 4279765201
48.903336 -27.303335 -367.08334 4278769604
49.448128 -27.419374 -367.29816 4278769604
50.2775 -27.472498 -367.715 4286142763
51.02 -27.870001 -367.95999 4286142763
47.689999 -26.15 -367.12 4293602473
48.575222 -26.484777 -367.40649 4278769604
49.320004 -26.656361 -367.64545 4278604314
47.669445 -25.504444 -367.2572 4293602473
48.486668 -25.5 -367.5538 4278604314
49.1525 -25.68 -367.89502 4278604314
45.834999 -24.130001 -367.04999 4286784548
46.530003 -24.373999 -367.20999 4286784548
47.656662 -24.372223 -367.64331 4293602473
48.377144 -24.741428 -367.85141 4293602473
45.592224 -23.341112 -367.10559 4286784548
46.514446 -23.382223 -367.41559 4294769980
47.366154 -23.521536 -367.74689 4293602473
43.98 -22.030001 -367.01001 4286784548
44.677498 -22.296249 -367.0675 4286784548
45.491333 -22.474003 -367.21133 4286784548
46.568096 -22.471426 -367.65814 4294769980
47.272228 -22.728889 -367.83112 4293602473
43.546001 -21.356001 -367.06 4286784548
44.607147 -21.501429 -367.27783 4286784548
45.455555 -21.634445 -367.61557 4294769980
46.263336 -21.940001 -367.87332 4294769980
42.959999 -20.219999 -367.04001 4280942641
43.499172 -20.422499 -367.21249 4280942641
44.357002 -20.577 -367.65799 4280942641
45.130001 -20.85 -367.97 4294769980
41.829998 -19.139999 -367.20999 4280942641
42.582302 -19.443462 -367.42883 4280942641
43.429226 -19.667692 -367.64078 4280942641
44.099998 -19.74 -367.98999 4280942641
40.466923 -18.208462 -367.19232 4280942641
41.539288 -18.555712 -367.43997 4280942641
42.398888 -18.82111 -367.89221 4293602473
39.684998 -17.402222 -367.26889 4284072854
40.512383 -17.564285 -367.59476 4280942641
41.38588 -17.575294 -367.79944 4285163968
38.720001 -16.07 -367.04001 4289175447
39.601429 -16.434999 -367.55429 4289175447
40.056667 -16.606667 -367.88333 4289175447
38.71143 -15.284286 -367.16431 4289175447
39.734093 -15.50909 -367.73776 4293602473
40.101997 -15.43 -367.94202 4293602473
37.84 -14.076667 -367.20004 4290715828
38.608421 -14.467369 -367.33578 4289175447
39.443497 -14.5715 -367.74451 4289175447
40.009998 -14.71 -367.97 4289175447
36.709999 -13.12 -367.01001 4290715828
37.467003 -13.475001 -367.29153 4290715828
38.364006 -13.518 -367.71332 4290715828
36.655834 -12.425 -367.12253 4290715828
37.515289 -12.511763 -367.4129 4290715828
38.304443 -12.457778 -367.78162 4290715828
35.580002 -11.23375 -367.20377 4288615492
36.541786 -11.557858 -367.47574 4288615492
37.590626 -11.705626 -367.73563 4288615492
38.102501 -11.8775 -367.85999 4288615492
34.714165 -10.255833 -367.23499 4288615492
35.444004 -10.5128 -367.58719 4288615492
36.267502 -10.907499 -367.91251 4288615492
33.749229 -9.3553839 -367.31003 4288615492
34.424088 -9.6909103 -367.58408 4288615492
35.09 -9.9099998 -367.88501 4288615492
32.675335 -8.3353338 -367.14804 4287285740
33.4575 -8.5979156 -367.59 4288615492
34.146667 -8.8233328 -367.95667 4288615492
32.590626 -7.4250002 -367.24875 4287285740
33.401539 -7.5515385 -367.74152 4281887083
31.522724 -6.5663638 -367.16455 4293602473
32.535419 -6.5508332 -367.53622 4281887083
33.172501 -6.7349997 -367.815 4281887083
30.688 -5.3729997 -367.436 4278431271
31.39583 -5.5308328 -367.75668 4278431271
32.184998 -5.8050003 -367.85999 4278431271
29.537146 -4.4178572 -367.20999 4293602473
30.441252 -4.6725001 -367.74249 4293072995
31.01 -4.8699999 -368 4293072995
28.833334 -3.325 -367.1517 4293072995
29.440001 -3.6136363 -367.50543 4293072995
30.07 -3.8299999 -367.89001 4293072995
27.566666 -2.155 -367.14331 4293072995
28.580999 -2.5315001 -367.28903 4293072995
29.262001 -2.4333334 -367.71133 4293072995
26.608183 -1.4436364 -367.17636 4293602473
27.433996 -1.6970001 -367.34296 4293072995
28.369999 -1.4657143 -367.69571 4293001597
29.040001 -1.73 -367.88 4293001597
25.672146 -0.36857137 -367.21066 4293602473
26.434 -0.44600001 -367.45798 4293602473
27.460001 -0.40444443 -367.82004 4293602473
28.25 -0.86000001 -367.89001 4293001597
24.425001 0.71500003 -367.10999 4293602473
25.542856 0.36999997 -367.37283 4293602473
26.607998 0.49599999 -367.716 4288410197
27.235001 0.38999999 -367.89502 4288410197
23.663336 1.5583333 -367.15332 4287483184
24.512224 1.51 -367.3811 4293602473
25.535999 1.716 -367.63898 4288410197
26.342354 1.5429411 -367.82239 4288410197
27.129999 1.02 -367.98001 4288410197
22.706001 2.6679997 -367.16 4293602473
23.481428 2.4942856 -367.41998 4293602473
24.574003 2.4659996 -367.6907 4293602473
25.455833 2.3233335 -367.79166 4288410197
26.123335 2.1966667 -367.93002 4288410197
21.780001 3.71 -367.06 4293602473
22.577368 3.5721054 -367.61679 4293602473
23.456665 3.2377777 -367.81442 4293602473
24.219999 3.05 -367.92999 4293602473
21.646152 4.5669231 -367.30075 4293602473
22.225712 4.4700003 -367.82715 4280307712
20.70857 5.6728568 -367.16574 4293602473
21.463915 5.3395658 -367.55829 4280307712
22.030001 5.1100001 -368 4280307712
18.645555 6.6755557 -367.15555 4282368621
19.418823 6.4658833 -367.17352 4293602473
20.426666 6.3183331 -367.31833 4293602473
21.431669 6.2816672 -367.87997 4280307712
17.949999 7.4733334 -367.08334 4282368621
18.41 7.5257154 -367.28711 4282368621
19.34 7.3440003 -367.496 4293602473
20.549166 7.5299993 -367.81998 4293602473
21.223333 7.146667 -367.94336 4289750025
16.756668 8.833333 -367.15665 4282368621
17.623636 8.4181814 -367.23816 4282368621
18.483334 8.4366674 -367.48001 4293602473
19.303333 8.5716667 -367.84665 4293602473
20.290001 8.1700001 -367.935 4289750025
15.755 9.7950001 -367.10001 4282368621
16.563749 9.4499989 -367.37 4282368621
17.522001 9.4919996 -367.73401 4282368621
18.511667 9.3100004 -367.91165 4293602473
15.701334 10.528 -367.39999 4282368621
16.408335 10.388333 -367.80746 4293602473
14.924999 11.705 -367.11499 4279411191
15.359091 11.545455 -367.45273 4279411191
16.16 11.23 -367.95334 4279411191
13.85 12.92 -367.03 4281278864
14.605788 12.502632 -367.33633 4279411191
15.252001 12.217999 -367.77802 4279411191
13.702727 13.518182 -367.11182 4281278864
14.427895 13.51 -367.56839 4281278864
12.725834 14.694167 -367.17252 4282488966
13.578695 14.474785 -367.31393 4282488966
14.266251 14.378126 -367.70123 4293602473
12.427896 15.493157 -367.30737 4282488966
13.558572 15.337142 -367.78217 4282488966
10.647694 16.821537 -367.22928 4282488966
11.615 16.466499 -367.25653 4293602473
12.356842 16.374737 -367.69998 4282488966
13.105 16.15 -367.935 4282488966
10.551429 17.295713 -367.55289 4282488966
11.376472 17.505295 -367.77121 4282488966
12.06 17.299999 -367.92999 4282488966
10.9 18 -367.70999 4282488966
11.177142 18.252857 -367.87143 4282488966
127.63334 -119.305 -366.11499 4293602473
128.53 -119.25751 -366.17999 4293602473
126.57667 -118.32 -366.15665 4281827549
127.48201 -118.562 -366.298 4293602473
128.59361 -118.56999 -366.53638 4293602473
129.15714 -118.52715 -366.72141 4293602473
125.65667 -117.21333 -366.37003 4293602473
126.56126 -117.435 -366.55875 4281827549
127.40667 -117.30833 -366.74838 4293602473
128.42889 -117.59333 -366.86777 4293602473
124.7275 -116.4025 -366.28 4293602473
125.64334 -116.40555 -366.70886 4293602473
126.51909 -116.4709 -366.91815 4293602473
127.385 -116.66334 -366.94504 4293602473
123.8 -115.17 -366.32501 4293602473
124.60534 -115.39133 -366.604 4293602473
125.4677 -115.51769 -366.8692 4293602473
126.38786 -115.2943 -366.88785 4293602473
127.35701 -115.42999 -366.89297 4293602473
121.78 -114.01 -366.04001 4292900400
122.68999 -114.28857 -366.20142 4292900400
123.495 -114.48126 -366.4281 4293602473
124.51686 -114.43842 -366.78473 4293602473
125.53462 -114.47539 -366.77231 4293602473
126.56343 -114.53828 -366.79169 4293602473
127.52499 -114.535 -366.86594 4280364058
128.08 -114.51666 -366.96329 4280364058
120.73572 -113.25286 -366.11142 4292900400
121.41502 -113.42183 -366.42044 4292900400
122.34286 -113.82286 -366.32712 4292900400
123.68143 -113.84571 -366.60855 4293602473
124.43666 -113.87667 -366.72665 4293602473
125.6143 -113.81857 -366.65714 4293602473
126.16801 -113.89201 -366.88599 4293602473
127.36 -113.94 -366.98999 4280364058
120.56 -112.7875 -366.09497 4292900400
121.15401 -112.85201 -366.138 4292900400
93.734001 -78.171997 -366.21201 4285868394
91.884995 -77.065002 -366.12 4292875534
92.425003 -77.193756 -366.25125 4285868394
93.419571 -77.536095 -366.46481 4285868394
94.263336 -77.74334 -366.75333 4285868394
90.802002 -76.199997 -366.25 4292875534
91.451363 -76.644089 -366.49316 4292875534
92.377693 -76.892303 -366.74924 4285868394
93.110008 -76.916664 -366.92001 4285868394
88.568581 -75.111435 -366.16141 4282966058
89.505005 -75.305008 -366.35498 4293602473
90.414993 -75.606255 -366.63873 4292875534
87.746666 -74.351669 -366.28333 4282966058
88.457001 -74.586014 -366.55099 4282966058
89.323334 -74.818878 -366.72 4293602473
86.785995 -73.308006 -366.23798 4287913623
87.392303 -73.371536 -366.62463 4287913623
88.010002 -73.839996 -366.76999 4287913623
86.554443 -72.416306 -366.54855 4287913623
87.21833 -72.738335 -366.88834 4287913623
85.959999 -71.18 -366.17999 4287913623
86.310799 -71.642395 -366.47321 4287913623
85.788574 -70.459999 -366.37714 4287913623
86.091667 -70.755005 -366.78503 4287913623
85.457886 -69.516357 -366.58545 4293602473
70.845001 -55.130001 -366.14999 4281489338
71.501427 -55.194286 -366.12717 4281489338
70.816666 -54.668331 -366.10336 4281489338
71.510002 -54.443336 -366.23807 4281489338
72.505226 -54.405216 -366.69821 4284019785
73 -54.75 -366.95999 4284019785
70.970001 -53.169998 -366.09 4284019785
71.70118 -53.370583 -366.47531 4284019785
72.335495 -53.547504 -366.76453 4284019785
68.617142 -52.285713 -366.17572 4282381399
69.481384 -52.323444 -366.50446 4286533456
70.519356 -52.452568 -366.48837 4284019785
71.287277 -52.587269 -366.76453 4284019785
67.900002 -51.279999 -366.05334 4282381399
68.540909 -51.483639 -366.33774 4282381399
69.407303 -51.567688 -366.76654 4286533456
70.453575 -51.565716 -366.8743 4286533456
71.139992 -51.66 -366.91666 4286533456
67.72467 -50.39867 -366.172 4282381399
68.424133 -50.467239 -366.49518 4282381399
69.258575 -50.701424 -366.72574 4286533456
70.080002 -50.98 -366.92001 4286533456
66.694 -49.142998 -366.17102 4292168244
67.557892 -49.537895 -366.45685 4282381399
68.211105 -49.486668 -366.85889 4286533456
65.858009 -48.132 -366.18201 4292168244
66.448326 -48.532501 -366.37 4292168244
67.379997 -48.645004 -366.836 4286533456
64.698753 -47.235001 -366.16373 4293602473
65.566666 -47.571667 -366.39725 4292168244
66.548126 -47.478752 -366.79501 4292168244
67.115005 -47.607498 -366.96249 4292168244
64.598 -46.535995 -366.21198 4293602473
65.475456 -46.61182 -366.61725 4293602473
66.315002 -46.670002 -366.89252 4292168244
63.830002 -45.07 -366.03 4286674310
64.540588 -45.531761 -366.28998 4286674310
65.505005 -45.475624 -366.75061 4286674310
66.053337 -45.756668 -366.90665 4286674310
62.75 -44.239998 -366.095 4286674310
63.585552 -44.647781 -366.19775 4286674310
64.391815 -44.504551 -366.68637 4286674310
65.269997 -44.943333 -366.88663 4286674310
61.635002 -43.285 -366.185 4294666378
62.447498 -43.4925 -366.41498 4294552617
63.52 -43.776669 -366.71997 4286674310
64.190002 -43.900002 -366.94 4286674310
59.673336 -42.100002 -366.06335 4293602473
60.5 -42.441998 -366.21402 4293602473
61.428001 -42.571999 -366.58203 4294552617
62.419998 -42.84 -366.94 4294552617
58.773331 -41.336666 -366.07666 4293602473
59.5075 -41.580002 -366.25247 4293602473
60.354996 -41.412498 -366.64749 4294552617
61.049999 -41.77 -366.82001 4294552617
57.98 -40.110001 -366.10999 4286087645
58.311249 -40.378754 -366.15625 4286087645
59.538185 -40.456364 -366.69727 4293602473
60.220001 -40.57 -366.95001 4286087645
57.635002 -39.462502 -366.32748 4286087645
58.328339 -39.551666 -366.66333 4286087645
59.4025 -39.799999 -366.905 4286087645
56.639996 -38.364285 -366.26144 4288619569
57.471996 -38.536003 -366.69296 4286087645
58.129997 -38.785 -366.995 4286087645
55.68 -37.334999 -366.27499 4293602473
56.6675 -37.535004 -366.62 4288619569
57.205002 -37.695 -366.82501 4288619569
54.810001 -36.459999 -366.20001 4293602473
55.358574 -36.579998 -366.42285 4293602473
56.290001 -36.690002 -366.82001 4286976507
53.805 -35.404999 -366.10999 4283757990
54.364002 -35.472664 -366.39798 4283757990
55.247501 -35.517502 -366.87503 4293602473
53.583748 -34.416248 -366.29626 4293602473
54.459995 -34.420002 -366.70667 4293602473
55.09 -34.810001 -366.97 4293602473
51.767498 -33.337498 -366.05249 4283934037
52.602001 -33.386002 -366.384 4283934037
53.628891 -33.473331 -366.78671 4293602473
54.357498 -33.567497 -366.9325 4293602473
51.549999 -32.327499 -366.19373 4280929835
52.560997 -32.477997 -366.70999 4283934037
53.399998 -32.786667 -366.96664 4293602473
50.793335 -31.171667 -366.21329 4280929835
51.330475 -31.506668 -366.45285 4280929835
52.100002 -31.723333 -366.85001 4280929835
49.775997 -30.217999 -366.17801 4280929835
50.556156 -30.618462 -366.5108 4280929835
51.149998 -30.780001 -366.89499 4280929835
48.712002 -29.185999 -366.254 4278769604
49.593334 -29.392668 -366.46335 4278769604
50.478642 -29.484089 -366.80496 4286142763
47.685001 -28.469286 -366.20001 4278769604
48.540001 -28.597061 -366.51294 4278769604
49.357273 -28.696362 -366.83728 4278769604
50.275002 -28.970001 -366.935 4286142763
46.880001 -27.41 -366.22 4287180325
47.511108 -27.623331 -366.45447 4287180325
48.48 -27.631428 -366.80002 4278769604
49.07 -27.93 -366.98001 4278769604
45.779999 -26.34 -366.20999 4293602473
46.543335 -26.733335 -366.35999 4293602473
47.330002 -26.432499 -366.83499 4293602473
45.493332 -25.686666 -366.32666 4293602473
46.532501 -25.584999 -366.83502 4293602473
44.667782 -24.353333 -366.21448 4286784548
45.354446 -24.387779 -366.67667 4286784548
46 -24.51 -366.97 4286784548
42.896667 -23.186666 -366.07333 4286784548
43.462002 -23.316 -366.17599 4286784548
44.431004 -23.520498 -366.45749 4286784548
45.152 -23.705997 -366.83002 4286784548
42.709286 -22.460003 -366.17999 4286784548
43.459263 -22.492224 -366.52151 4286784548
44.27454 -22.755453 -366.83273 4286784548
41.772858 -21.275713 -366.22 4286784548
42.438927 -21.626066 -366.52536 4286784548
43.233337 -21.675001 -366.90833 4286784548
40.488331 -20.328333 -366.16501 4284072854
41.504616 -20.519228 -366.41925 4286784548
42.459499 -20.65 -366.82999 4286784548
43.035 -20.700001 -366.995 4286784548
39.657272 -19.398182 -366.14636 4284072854
40.491539 -19.549232 -366.37155 4284072854
41.491253 -19.446251 -366.76685 4280942641
42.110001 -19.709999 -366.97 4280942641
38.925003 -18.244999 -366.10999 4284072854
39.622608 -18.405653 -366.45917 4284072854
40.529415 -18.658234 -366.75763 4280942641
41.156666 -18.879999 -366.84335 4280942641
38.581249 -17.436249 -366.27374 4284072854
39.325001 -17.764166 -366.65833 4284072854
37.735004 -16.452499 -366.215 4289175447
38.353329 -16.541113 -366.62665 4289175447
36.740002 -15.39 -366.07001 4290715828
37.359997 -15.410001 -366.3714 4290715828
38.262501 -15.52 -366.88251 4289175447
36.526669 -14.506667 -366.28333 4290715828
37.534 -14.513334 -366.75598 4290715828
38.07 -14.84 -366.94 4290715828
34.919998 -13.09 -366.17001 4288615492
35.620003 -13.542999 -366.29095 4290715828
36.381248 -13.5125 -366.70999 4290715828
37.114998 -13.855 -366.87 4290715828
33.970001 -12.28 -366.07001 4288615492
34.549282 -12.407143 -366.375 4288615492
35.469524 -12.578096 -366.7562 4290715828
36.130001 -12.656667 -366.92001 4290715828
32.702499 -11.225 -366.15002 4288615492
33.501305 -11.525217 -366.29044 4288615492
34.660625 -11.47625 -366.6694 4288615492
35.258572 -11.724999 -366.84146 4288615492
31.860001 -10.08 -366.01001 4288615492
32.552223 -10.467779 -366.29333 4288615492
33.598095 -10.44 -366.68811 4293602473
34.41 -10.733078 -366.8215 4288615492
35.009998 -10.99 -366.98001 4288615492
31.796667 -9.5299997 -366.12 4287285740
32.510555 -9.5488882 -366.43445 4287285740
33.236153 -9.6207695 -366.7677 4293602473
30.860001 -8.1599998 -366.04999 4287285740
31.506002 -8.4929981 -366.28201 4287285740
32.384445 -8.4833336 -366.81775 4287285740
30.726002 -7.4460001 -366.26602 4287285740
31.476088 -7.4495645 -366.56131 4287285740
32.168575 -7.54 -366.89285 4287285740
28.83 -6.1149998 -366.07501 4278431271
29.51 -6.3540001 -366.23599 4278431271
30.582499 -6.4874997 -366.74249 4293602473
31.243334 -6.8266664 -366.89999 4293602473
27.646664 -5.331111 -366.08777 4278431271
28.482668 -5.5006661 -366.20599 4278431271
29.496922 -5.4123077 -366.60077 4278431271
30.195 -5.7049999 -366.87 4278431271
27.658001 -4.4700003 -366.19653 4278431271
28.571997 -4.4353337 -366.53265 4293602473
29.228575 -4.6871428 -366.78433 4293602473
26.845001 -3.5650001 -366.02499 4293602473
27.591307 -3.5247822 -366.24481 4293602473
28.332499 -3.5891669 -366.69666 4293072995
25.83 -2.1500001 -366.10999 4293002249
26.613998 -2.437 -366.32401 4293002249
27.38143 -2.6661901 -366.56097 4293072995
28.095999 -2.8080001 -366.87997 4293072995
23.959999 -1.01 -366.06 4287483184
24.673077 -1.4376922 -366.23923 4287483184
25.486668 -1.6119999 -366.43802 4293002249
26.377499 -1.755 -366.84747 4293602473
23.787142 -0.30857143 -366.21713 4287483184
24.415834 -0.54458332 -366.4808 4287483184
25.354 -0.76599997 -366.866 4293602473
22.543001 0.74199998 -366.20898 4287483184
23.567369 0.46157897 -366.58572 4287483184
24.233753 0.28999999 -366.83249 4293602473
21.575001 1.6350002 -366.24313 4287569450
22.435555 1.5116668 -366.66003 4287483184
23.1 1.21 -366.82001 4287483184
20.832001 2.546 -366.07202 4287569450
21.368822 2.5447061 -366.41409 4287569450
22.349998 2.348 -366.88602 4293602473
19.629999 3.8299999 -366.09747 4293602473
20.512665 3.5680001 -366.25336 4293602473
21.255001 3.3799999 -366.57126 4293602473
18.6775 4.6075001 -366.0975 4282316612
19.617895 4.4736843 -366.48843 4293602473
20.405832 4.5275002 -366.71127 4293602473
21.222498 4.2575002 -366.88501 4293602473
17.91 5.79 -366.07001 4282316612
18.476999 5.5910001 -366.38101 4282316612
19.509447 5.2933331 -366.77222 4293602473
20.335712 5.2400002 -366.88428 4293602473
16.700001 6.9000001 -366.01999 4280704332
17.659229 6.5684614 -366.40311 4282316612
18.411877 6.3643746 -366.83435 4282368621
16.646152 7.5907688 -366.21692 4280704332
17.540558 7.4511108 -366.81613 4282368621
14.84 8.5299997 -366.01999 4280704332
15.463333 8.5974998 -366.20834 4280704332
16.343157 8.4110527 -366.50058 4282368621
17.095001 8.0550003 -366.84003 4282368621
14.733334 9.6400003 -366.23331 4280704332
15.418334 9.5075006 -366.68668 4282368621
12.95 10.94 -366.01001 4280704332
13.655 10.817501 -366.10748 4280704332
14.41923 10.572307 -366.35461 4280704332
15.176666 10.400001 -366.85001 4282368621
12.650001 11.56 -366.12 4280704332
13.514667 11.460001 -366.31067 4280704332
14.450528 11.634736 -366.74423 4279411191
15.05 11.2 -366.98001 4279411191
11.731667 12.746667 -366.07498 4281278864
12.538095 12.643332 -366.50238 4281278864
13.491669 12.420001 -366.74585 4281278864
14.241666 12.238334 -366.85165 4279411191
11.720833 13.448333 -366.07834 4281278864
12.500333 13.527666 -366.49033 4281278864
13.116 13.530001 -366.90598 4281278864
11.926666 14.886666 -366.40665 4282488966
12.3876 14.4016 -366.52402 4282488966
9.5225 15.846251 -366.10751 4293602473
10.6075 15.875 -366.14252 4282488966
11.589269 15.545123 -366.53418 4282488966
12.04 15.24 -366.95502 4282488966
9.6628571 16.36857 -366.52145 4293602473
10.429131 16.362175 -366.51309 4282488966
11.308001 16.196003 -366.68704 4293602473
126.87333 -121.42667 -365.11002 4278564355
127.54562 -121.55624 -365.20441 4278564355
128.39555 -121.58001 -365.18335 4278564355
126.66875 -120.43874 -365.41751 4293602473
127.46589 -120.56587 -365.65057 4293602473
128.271 -120.57902 -365.74902 4293602473
124.99 -119.15 -365.06 4293602473
125.58 -119.6 -365.20001 4293602473
126.5125 -119.41501 -365.76874 4293602473
127.385 -119.73334 -365.95834 4293602473
128.505 -119.8 -365.97998 4293602473
124.7 -118.5 -365.20001 4293602473
125.48334 -118.55334 -365.61002 4293602473
126.44 -118.68 -365.98001 4281827549
123.675 -117.38499 -365.21002 4283784738
124.525 -117.685 -365.52499 4293602473
125.55 -117.91 -365.95001 4293602473
122.47 -116.22 -365.17334 4284919923
123.35499 -116.56167 -365.47165 4283784738
124.17 -116.79 -365.83002 4283784738
121.71334 -115.48334 -365.1467 4284919923
122.56 -115.546 -365.478 4284919923
123.38 -115.63 -365.86667 4293602473
119.76 -114.04 -365.09 4292900400
120.72666 -114.38332 -365.19998 4292900400
121.4789 -114.50556 -365.50775 4292900400
122.49667 -114.72666 -365.85669 4292900400
118.93 -113.25 -365.04999 4290766635
119.49741 -113.50914 -365.33521 4292900400
120.4 -113.572 -365.68268 4292900400
121.25668 -113.86333 -365.90665 4292900400
119.74 -112.76 -365.77002 4292900400
91.786659 -79.203331 -365.08667 4284068565
92.609161 -79.358345 -365.30252 4284068565
93.083336 -79.236671 -365.52002 4284068565
89.843994 -78.162003 -365.07599 4286584669
90.422096 -78.315262 -365.23264 4286584669
91.472496 -78.480827 -365.28415 4284068565
92.464165 -78.498329 -365.61499 4284068565
93.25 -78.620003 -365.84335 4285868394
89.655258 -77.527893 -365.16367 4286584669
90.44577 -77.366142 -365.37726 4292875534
91.492226 -77.427765 -365.58557 4292875534
92.206665 -77.627502 -365.76248 4285868394
89.718132 -76.478745 -365.14313 4292875534
90.442062 -76.464493 -365.41727 4292875534
91.209282 -76.76786 -365.74142 4292875534
87.758331 -75.151665 -365.35916 4282966058
88.484352 -75.484344 -365.49258 4282966058
89.41626 -75.813118 -365.52374 4292875534
90.054993 -75.925003 -365.73499 4292875534
86.71167 -74.269997 -365.36917 4282966058
87.312935 -74.598824 -365.63531 4282966058
88.029999 -75 -365.94 4282966058
85.657501 -73.357498 -365.30249 4287913623
86.264999 -73.561424 -365.64716 4287913623
85.522064 -72.459991 -365.50967 4287913623
86.150002 -72.980003 -366 4287913623
85.590477 -71.673332 -365.50528 4287913623
82.884995 -70.744995 -365.02502 4291355249
83.25 -70.869995 -365.13 4291355249
68.790001 -55.040001 -365.10001 4289180367
69.569336 -55.256001 -365.23798 4281489338
70.53479 -55.508259 -365.44739 4281489338
71.351494 -55.616505 -365.5065 4281489338
67.82 -54.139999 -365.09 4289180367
68.440002 -54.418507 -365.33298 4289180367
69.420715 -54.499287 -365.60928 4281489338
70.411896 -54.531906 -365.76813 4281489338
71.240005 -54.055 -365.94 4281489338
67.684006 -53.382 -365.302 4289932560
68.530914 -53.519543 -365.69772 4289180367
69.457184 -53.584404 -365.6832 4293602473
70.574448 -53.525925 -365.6759 4284019785
71.239998 -53.640003 -365.91397 4284019785
65.910004 -52.150002 -365.03 4289932560
66.518005 -52.365997 -365.21799 4289932560
67.459999 -52.439281 -365.5686 4289932560
68.318573 -52.747139 -365.76431 4282381399
69.563332 -52.865002 -365.80496 4286533456
70.303337 -52.820831 -365.82083 4284019785
65.822495 -51.465 -365.13 4289932560
66.467506 -51.512501 -365.45251 4289932560
67.381424 -51.644997 -365.815 4282381399
64.794998 -50.135002 -365.15503 4287822304
65.587997 -50.448666 -365.41534 4287822304
66.573524 -50.345291 -365.68762 4282381399
67.196259 -50.431248 -365.86377 4282381399
63.809998 -49.120003 -365.13501 4287822304
64.53125 -49.4375 -365.41956 4287822304
65.426674 -49.601421 -365.75336 4287822304
66.434784 -49.648266 -365.82651 4282381399
67.109993 -49.863331 -365.94336 4282381399
63.591663 -48.629993 -365.18832 4287822304
64.597366 -48.447895 -365.65472 4287822304
65.361763 -48.616482 -365.85938 4292168244
62.696667 -47.430004 -365.09668 4293602473
63.572857 -47.524284 -365.49857 4293602473
64.377502 -47.645 -365.82626 4293602473
61.842499 -46.252502 -365.19501 4284185297
62.438572 -46.597141 -365.31857 4284185297
63.606159 -46.573849 -365.77539 4293602473
64.084282 -46.439999 -365.9357 4293602473
61.553638 -45.615456 -365.13724 4284185297
62.612503 -45.501247 -365.60126 4284185297
63.433537 -45.52412 -365.81586 4286674310
64.125 -45.614998 -365.94501 4286674310
60.613632 -44.362724 -365.14182 4293602473
61.478752 -44.594997 -365.405 4293602473
62.534004 -44.655998 -365.82001 4286674310
63.240002 -44.91 -365.95999 4286674310
59.855003 -43.119999 -365.245 4293602473
60.445709 -43.554287 -365.35571 4293602473
61.436665 -43.630001 -365.85999 4294666378
58.598331 -42.368332 -365.25 4293602473
59.432003 -42.581997 -365.5596 4293602473
60.273335 -42.869999 -365.80331 4293602473
56.919998 -41.330002 -365.01001 4286087645
57.664448 -41.485554 -365.32556 4286087645
58.347507 -41.555836 -365.745 4293602473
59 -41.889999 -365.95001 4293602473
56.473999 -40.431999 -365.22202 4286087645
57.548752 -40.486252 -365.68124 4286087645
58.173336 -40.693333 -365.94998 4286087645
55.536671 -39.399998 -365.19336 4283343024
56.504444 -39.460003 -365.59778 4293602473
57.389999 -39.740002 -365.98999 4286087645
54.73 -38.189999 -365.20999 4283757990
55.394001 -38.576 -365.46402 4283757990
56.299999 -38.814999 -365.815 4288619569
54.436665 -37.552502 -365.33752 4283757990
55.41 -37.82 -365.92001 4293602473
52.776669 -36.206665 -365.06998 4283757990
53.513329 -36.422226 -365.33444 4283757990
54.300003 -36.636665 -365.78665 4293602473
52.599998 -35.439999 -365.33801 4283757990
53.435719 -35.58857 -365.76999 4283757990
50.860001 -34.100002 -365.15332 4283934037
51.545628 -34.358746 -365.33377 4283934037
52.319996 -34.342857 -365.71146 4293602473
53.139999 -34.860001 -365.88501 4293602473
49.680626 -33.453129 -365.15814 4283934037
50.37944 -33.555 -365.33328 4283934037
51.380527 -33.513687 -365.78735 4283934037
52.215 -33.915001 -365.965 4293602473
48.656361 -32.319092 -365.14999 4278769604
49.488754 -32.648121 -365.31061 4293602473
50.576359 -32.497269 -365.65271 4280929835
51.200001 -32.846668 -365.86002 4280929835
48.647079 -31.44417 -365.22208 4278769604
49.605 -31.419285 -365.56363 4293602473
50.336662 -31.520666 -365.79733 4280929835
47.716671 -30.211668 -365.14502 4278769604
48.515263 -30.582108 -365.30368 4278769604
49.444118 -30.56706 -365.72061 4280929835
50.139999 -30.889999 -365.95001 4280929835
46.850002 -29.205 -365.13 4278769604
47.386669 -29.43222 -365.28998 4278769604
48.339996 -29.609999 -365.745 4278769604
49.189999 -29.889999 -365.98999 4278769604
45.700001 -28.445 -365.13501 4278769604
46.545555 -28.611111 -365.39001 4278769604
47.326 -28.710001 -365.77399 4278769604
43.900002 -27.209999 -365.04001 4280738141
44.387501 -27.372499 -365.125 4280738141
45.351665 -27.601667 -365.34 4293602473
46.408337 -27.773333 -365.77499 4287180325
43.653336 -26.669998 -365.04663 4280738141
44.385002 -26.425001 -365.47003 4280738141
45.446003 -26.684 -365.84198 4293602473
42.779999 -25.16 -365.07999 4286784548
43.342499 -25.400002 -365.23749 4286784548
44.330002 -25.375 -365.755 4286784548
41.790001 -24.025002 -365.11499 4286784548
42.510834 -24.479166 -365.33749 4286784548
43.499001 -24.365 -365.70306 4286784548
44.208332 -24.583334 -365.87332 4286784548
40.860001 -23.139999 -365.19 4286784548
41.447144 -23.394287 -365.33929 4286784548
42.445381 -23.607693 -365.77002 4286784548
43.41 -23.8575 -365.91251 4286784548
39.794998 -22.24 -365.14502 4284072854
40.492668 -22.542 -365.27667 4286784548
41.430523 -22.464211 -365.55478 4286784548
42.137775 -22.516666 -365.84338 4286784548
38.75 -21.049999 -365.155 4284072854
39.608887 -21.433889 -365.4628 4284072854
40.512371 -21.572382 -365.62143 4286784548
41.561111 -21.619446 -365.78552 4286784548
42.049999 -21.9 -365.92001 4286784548
37.970001 -20.23 -365.06 4284072854
38.564999 -20.543333 -365.23331 4284072854
39.53363 -20.566362 -365.77365 4284072854
40.114998 -20.805 -365.92999 4284072854
37.615555 -19.567776 -365.16891 4284072854
38.363331 -19.500002 -365.48169 4284072854
39.170002 -19.660002 -365.81668 4284072854
36.723331 -18.426666 -365.12 4284072854
37.485001 -18.366667 -365.53 4284072854
38.315002 -18.428749 -365.82874 4284072854
39.099998 -18.879999 -365.98999 4284072854
36.459999 -17.446156 -365.20691 4293602473
37.59 -17.551817 -365.74277 4284072854
38.139999 -17.665001 -365.935 4284072854
35.605293 -16.271765 -365.21234 4280399364
36.498234 -16.694708 -365.41412 4293602473
37.420002 -16.82 -365.82501 4289175447
34.865715 -15.417144 -365.11856 4280399364
35.475998 -15.5495 -365.53702 4280399364
36.25 -15.634443 -365.80887 4290715828
34.613998 -14.512002 -365.23935 4280399364
35.422859 -14.527144 -365.72858 4293602473
32.853333 -13.223332 -365.05664 4288615492
33.34 -13.395555 -365.20444 4288615492
34.54615 -13.605384 -365.59381 4288615492
35.231426 -13.791429 -365.81714 4290715828
31.780001 -12.05 -365.17999 4288615492
32.601112 -12.541111 -365.23444 4288615492
33.504997 -12.607 -365.63199 4288615492
34.209999 -12.85 -365.89001 4288615492
30.879999 -11.25 -365.01999 4279330100
31.578127 -11.5425 -365.32312 4288615492
32.310909 -11.559091 -365.72998 4288615492
30.540667 -10.507334 -365.21335 4279330100
31.490002 -10.52125 -365.70624 4288615492
32.049999 -10.99 -365.84 4288615492
29.99 -9.4499998 -365.06 4293602473
30.491669 -9.5741663 -365.42001 4293602473
31.256666 -9.3433342 -365.95667 4287285740
29.682144 -8.3385715 -365.17001 4293602473
30.455717 -8.5599995 -365.66501 4287285740
31.01 -8.8299999 -365.98001 4287285740
