# .PCD v0.7 - Point Cloud Data file format
VERSION 0.7
FIELDS x y z rgba
SIZE 4 4 4 4
TYPE F F F U
COUNT 1 1 1 1
WIDTH 1170
HEIGHT 1
VIEWPOINT 0 0 0 1 0 0 0
POINTS 1170
DATA ascii
1.2652889 -0.35530004 -4.0170665 10227473
1.2718 -0.35919997 -4.0179996 10227473
1.2384 -0.34299999 -4.0106001 10227473
1.2449399 -0.34516004 -4.0123601 10227473
1.2529 -0.34587502 -4.0156999 10227473
1.2262 -0.33130002 -4.0108004 10227473
1.2350812 -0.33455622 -4.0138311 10227473
1.2428666 -0.33548331 -4.0166502 10227473
1.2194 -0.32139999 -4.0114002 10227473
1.2266999 -0.32412857 -4.0136571 10227473
1.2348286 -0.32618573 -4.0168285 10227473
1.2407 -0.32599998 -4.0192003 10227473
1.206923 -0.31235385 -4.0121775 10227473
1.2146 -0.31497499 -4.0133829 10227473
1.2242666 -0.31596667 -4.0160003 10227473
1.2325 -0.31709999 -4.0194001 10227473
1.1654125 -0.30221248 -4.0109124 16711680
1.1712999 -0.3019 -4.0105 16711680
1.1974624 -0.30330002 -4.0117874 10227473
1.2050447 -0.30546552 -4.0139418 10227473
1.213511 -0.30524999 -4.0177002 10227473
1.2217 -0.3075 -4.0198998 10227473
1.16558 -0.29477498 -4.01195 16711680
1.1745579 -0.29530001 -4.0126948 16711680
1.1845232 -0.29385337 -4.0153599 10227473
1.1948681 -0.29754001 -4.0152559 10227473
1.2029834 -0.29921666 -4.018867 10227473
1.1665437 -0.28721875 -4.0119567 16711680
1.1749578 -0.28493074 -4.012785 10227473
1.1825527 -0.2851842 -4.016542 10227473
1.176975 -0.27884999 -4.0103745 10227473
1.1827476 -0.27488095 -4.0149665 10227473
1.1561251 -0.26236668 -4.0133753 10227473
1.165275 -0.26579583 -4.0148044 10227473
1.1753149 -0.26734444 -4.0147734 10227473
1.182175 -0.26826251 -4.0173378 10227473
1.1481333 -0.25383332 -4.0112333 10227473
1.1554147 -0.25522944 -4.0155702 10227473
1.1602 -0.25999999 -4.0188003 10227473
1.1396 -0.24120001 -4.0120997 16711680
1.1448035 -0.24512067 -4.0144172 10227473
1.1528467 -0.24681999 -4.0179062 10227473
1.1279 -0.23025002 -4.0106502 10227473
1.13755 -0.23457856 -4.0114069 10227473
1.1455654 -0.2366069 -4.015769 10227473
1.1549035 -0.2336643 -4.0157175 10227473
1.1609 -0.23145001 -4.0188999 10227473
1.099 -0.22393334 -4.0111337 10227473
1.1049207 -0.22489657 -4.0131655 10227473
1.1150388 -0.22411114 -4.014533 10227473
1.1261764 -0.22608097 -4.0147142 10227473
1.1350044 -0.22549127 -4.0155654 10227473
1.1446214 -0.22513571 -4.0148988 16711680
1.1549286 -0.22686072 -4.0139251 16711680
1.1601 -0.22850001 -4.0186 10227473
1.0980667 -0.21305557 -4.0120335 10227473
1.1043959 -0.21574996 -4.0164375 10227473
1.1110333 -0.21853334 -4.0190663 10227473
1.0896 -0.20100001 -4.0103002 10227473
1.0948528 -0.20466843 -4.0130687 10227473
1.103725 -0.20500001 -4.0178165 10227473
1.08845 -0.19406667 -4.0112834 10227473
1.0939562 -0.19524999 -4.0140753 10227473
1.1057308 -0.19562307 -4.0171032 10227473
1.1120429 -0.19705716 -4.0190001 10227473
1.07725 -0.18270001 -4.0107002 10227473
1.086095 -0.18395498 -4.01333 10227473
1.09436 -0.18569998 -4.01648 10227473
1.1027666 -0.18843332 -4.0189662 10227473
1.0683999 -0.17110001 -4.0100999 10227473
1.0747216 -0.17362858 -4.0124712 10227473
1.0838624 -0.17460625 -4.0169878 10227473
1.09165 -0.17904998 -4.0191498 10227473
1.0580333 -0.16420001 -4.0118337 10227473
1.06575 -0.16424 -4.0130048 10227473
1.0748 -0.16552916 -4.0158997 10227473
1.08144 -0.16836001 -4.0184202 10227473
1.0584201 -0.15545 -4.0173297 10227473
1.0637857 -0.15754285 -4.0181212 10227473
1.0701001 -0.15810001 -4.0197001 10227473
1.01662 -0.12118 -4.0112004 10227473
1.0082301 -0.11109 -4.0152702 10227473
1.0137091 -0.11587726 -4.0149312 10227473
0.99712723 -0.10245454 -4.012373 10227473
1.0042472 -0.10487778 -4.0164027 10227473
1.01456 -0.1038 -4.0191302 10227473
1.021675 -0.104025 -4.0197749 10227473
0.98764998 -0.09361428 -4.011879 10227473
0.99439502 -0.095515005 -4.0142999 10227473
1.006152 -0.095228001 -4.0167675 10227473
1.0129499 -0.096187502 -4.0183187 10227473
0.97602707 -0.082023084 -4.0150881 10227473
0.98492742 -0.083799988 -4.0144725 10227473
0.99586922 -0.084600002 -4.0156693 10227473
1.0030769 -0.086546153 -4.0184388 10227473
0.96919996 -0.073399998 -4.0123429 10227473
0.9752875 -0.074618757 -4.0177221 10227473
0.98422736 -0.074827269 -4.0169225 10227473
0.99481302 -0.074191302 -4.0164657 10227473
1.0018429 -0.07482858 -4.0182142 10227473
0.96887499 -0.066374995 -4.0110998 10227473
0.97413564 -0.065964289 -4.0158324 10227473
0.98579997 -0.068149999 -4.0188999 10227473
0.99443334 -0.068099998 -4.0189672 10227473
0.91380006 -0.054000001 -4.0107331 16711680
0.97557235 -0.055244833 -4.0148559 10227473
0.98319989 -0.052162498 -4.0195374 10227473
0.96841431 -0.043385714 -4.0118575 10227473
0.97436005 -0.045840003 -4.0149899 10227473
0.98386663 -0.048049998 -4.0190001 10227473
0.99124998 -0.04755 -4.0197001 10227473
0.95573997 -0.03176 -4.0151396 10227473
0.96759993 -0.034785714 -4.0143719 16711680
0.97255445 -0.035790909 -4.0175819 16711680
0.94575 -0.02342857 -4.012929 10227473
0.95427775 -0.025894446 -4.0170221 10227473
0.96249998 -0.029300001 -4.0174999 10227473
0.93915004 -0.0107 -4.0107002 10227473
0.94598216 -0.013950001 -4.0146856 10227473
0.95148337 -0.017133333 -4.0178833 10227473
0.93695992 -0.0047649993 -4.0133758 10227473
0.94271338 -0.0074133333 -4.0174265 10227473
0.88805842 0.0061750007 -4.0122585 10227473
0.89384437 0.0062888884 -4.011889 10227473
0.91850001 0.0083999997 -4.0106001 10227473
0.92578208 0.0069785719 -4.014111 10227473
0.93430907 0.0034090912 -4.0157595 10227473
0.88731247 0.0118625 -4.0112376 10227473
0.89559287 0.014085714 -4.0113788 10227473
0.90504158 0.015958333 -4.0141869 10227473
0.91549683 0.014818749 -4.0155721 10227473
0.92274445 0.012166667 -4.0176888 10227473
0.89817137 0.023700001 -4.0111995 10227473
0.90414542 0.021654546 -4.0167727 10227473
0.85930002 0.078500003 -4.0112 10227473
0.86437857 0.078678578 -4.0159931 10227473
0.87525558 0.078261107 -4.0139718 10227473
0.88168579 0.076699995 -4.0173717 10227473
0.84814996 0.088950008 -4.0115252 10227473
0.85518229 0.084696427 -4.0142851 10227473
0.8623572 0.080942862 -4.0190997 10227473
0.8756125 0.081 -4.0187373 10227473
0.88139999 0.079999998 -4.0188999 10227473
0.84664011 0.094410002 -4.0127697 10227473
0.85230631 0.093287505 -4.0171814 10227473
0.83808333 0.10755 -4.0112166 10227473
0.84472865 0.10543334 -4.0150237 10227473
0.85166001 0.10502001 -4.0190001 10227473
0.82703328 0.1177 -4.0120997 10227473
0.83547139 0.11564285 -4.0136285 10227473
0.8434059 0.11518822 -4.0180416 10227473
0.80730003 0.12785 -4.0110002 10227473
0.81429094 0.12643637 -4.0127273 10227473
0.82459235 0.12624617 -4.0167694 10227473
0.83535284 0.12264118 -4.0166707 10227473
0.84203333 0.12206668 -4.0188003 10227473
0.79836255 0.13615 -4.0110874 10227473
0.80450952 0.13426191 -4.0135002 10227473
0.81477773 0.13481112 -4.0168333 10227473
0.82055002 0.13354999 -4.0197001 10227473
0.79811668 0.14493333 -4.0112333 10227473
0.80376673 0.14491665 -4.0147915 10227473
0.81309998 0.14355001 -4.0184002 10227473
0.78795713 0.1587 -4.0111284 10227473
0.79460907 0.15478183 -4.0130363 10227473
0.80404443 0.15442222 -4.0172668 10227473
0.77603996 0.16735199 -4.01442 10227473
0.78374654 0.16541332 -4.0150728 10227473
0.79483879 0.16533333 -4.0174499 10227473
0.80159998 0.16103335 -4.0194335 10227473
0.76624697 0.17607647 -4.0124116 10227473
0.77499527 0.17451428 -4.0167522 10227473
0.78389257 0.1732 -4.017374 10227473
0.79286665 0.17221667 -4.0183001 10227473
0.75869995 0.18440001 -4.0106001 10227473
0.76332009 0.18329997 -4.0125299 10227473
0.77432001 0.18374 -4.0181599 10227473
0.74660003 0.19780001 -4.0105 10227473
0.75554991 0.19528751 -4.012044 10227473
0.76381415 0.19666429 -4.0169501 10227473
0.77279997 0.19284999 -4.0197001 10227473
0.73826671 0.2043 -4.0105333 10227473
0.74620992 0.20540999 -4.0134401 10227473
0.75539094 0.20402727 -4.0168505 10227473
0.76160002 0.20185001 -4.0194001 10227473
0.72673333 0.21783333 -4.0108666 10227473
0.73561668 0.21521665 -4.0132837 10227473
0.74614996 0.21252501 -4.0169249 10227473
0.7511667 0.21129999 -4.0189333 10227473
0.72545004 0.22463334 -4.011858 10227473
0.73343331 0.22633334 -4.0164332 10227473
0.71808577 0.23624286 -4.0120287 10227473
0.72371572 0.23543158 -4.0153522 10227473
0.73248571 0.2350571 -4.0189996 10227473
0.69887495 0.24689999 -4.0114999 10227473
0.70584577 0.24530832 -4.0134292 10227473
0.71468133 0.24470003 -4.0145249 10227473
0.72469568 0.24418263 -4.0178351 10227473
0.73180002 0.24299999 -4.0197997 10227473
0.69837779 0.25514445 -4.0111666 10227473
0.70515001 0.25430626 -4.0159812 10227473
0.71386117 0.25570554 -4.0175395 10227473
0.72276366 0.25242728 -4.0182729 10227473
0.69825 0.2633 -4.011775 10227473
0.70582938 0.26431763 -4.0170708 10227473
0.71443331 0.26316667 -4.0195165 10227473
0.69472855 0.27515715 -4.0132427 10227473
0.70353752 0.27397498 -4.0180998 10227473
0.69739997 0.28049999 -4.0176001 10227473
2.0795333 -1.3467 -4.0002999 7745120
2.0807729 -1.3467637 -4.001173 7745120
2.0504599 -1.32024 -4.0032597 7745120
2.0540001 -1.3158858 -4.0026617 7745120
2.0553541 -1.3057998 -4.0037889 7745120
2.0615141 -1.3057714 -4.0082717 7745120
2.0539286 -1.2976571 -4.0084138 7745120
1.9097 -1.1530499 -4.0005498 10790151
1.9149599 -1.1529576 -4.0046577 10790151
1.9249851 -1.157155 -4.0086756 10790151
1.916 -1.1496401 -4.0086603 10790151
1.8467201 -1.0827299 -4.00424 10971096
1.8518599 -1.08176 -4.0075397 10971096
1.8367333 -1.0737833 -4.0016003 10971096
1.845243 -1.0755715 -4.0067759 10971096
1.8543445 -1.0767112 -4.0091558 10971096
1.8262835 -1.06305 -4.001183 10971096
1.8356106 -1.0650947 -4.0024943 10971096
1.843225 -1.0641584 -4.0071917 10971096
1.8159666 -1.0517334 -4.0013833 10971096
1.826159 -1.0541999 -4.0023994 10971096
1.834567 -1.05462 -4.0055866 10971096
1.8418748 -1.057925 -4.00845 10971096
1.8078198 -1.0437199 -4.0010896 10971096
1.8148001 -1.0444332 -4.0034933 10971096
1.8247333 -1.0467502 -4.0059776 10971096
1.8322001 -1.048225 -4.008975 10971096
1.8072084 -1.0354416 -4.0008168 10971096
1.8115454 -1.0344001 -4.0027547 10971096
1.7962788 -1.0237896 -4.0044155 10971096
1.8040833 -1.025161 -4.0043106 10971096
1.8119601 -1.0284001 -4.0029602 10971096
1.7940334 -1.0191666 -4.0019665 10971096
1.7392999 -0.94019997 -4.0001998 1422543
1.7457252 -0.940525 -4.0011749 1422543
1.7526143 -0.94138575 -4.0016427 1422543
1.7275 -0.93805003 -4.0035996 1422543
1.7343715 -0.93861425 -4.0029144 1422543
1.74125 -0.93934995 -4.0025501 1422543
1.6982502 -0.92105001 -4.0026999 1422543
1.7052166 -0.92425555 -4.0057669 1422543
1.7114999 -0.92750001 -4.0091996 1422543
1.6877999 -0.91460001 -4.0056834 15803009
1.6953354 -0.9157176 -4.0065007 15803009
1.7024001 -0.91652852 -4.0086002 1422543
1.7026 -0.90739995 -4.0096998 1422543
1.6360251 -0.87047499 -4.0011997 16711680
1.642279 -0.87502509 -4.0020962 16711680
1.6365356 -0.86900711 -4.0043149 16711680
1.5247799 -0.73194999 -4.0017848 10227473
1.5325 -0.73260003 -4.0007 10227473
1.5241001 -0.72860003 -4.0009747 10227473
1.5341667 -0.72666663 -4.0004334 10227473
1.5233251 -0.71261251 -4.0022125 10227473
1.5254916 -0.70443749 -4.003058 10227473
1.5316453 -0.70516825 -4.0071683 10227473
1.5260231 -0.69529998 -4.002388 10227473
1.5336096 -0.69326669 -4.0069623 10227473
1.5438073 -0.69280714 -4.0083785 10227473
1.5065001 -0.68488181 -4.0025182 10227473
1.5150142 -0.68388563 -4.0049095 10227473
1.5243846 -0.68504226 -4.0062618 10227473
1.5351357 -0.68734992 -4.0076857 10227473
1.5420909 -0.68736356 -4.0070176 10227473
1.48715 -0.670775 -4.0011501 10227473
1.4954098 -0.67130995 -4.0018501 10227473
1.5062579 -0.67320961 -4.0046515 10227473
1.5129563 -0.67761874 -4.007669 10227473
1.4789002 -0.66298568 -4.000843 10227473
1.4838459 -0.66449165 -4.0027504 10227473
1.4942749 -0.66545713 -4.0062251 10227473
1.5031867 -0.66539329 -4.0084 10227473
1.4791335 -0.65510005 -4.0002999 10227473
1.4844452 -0.65391928 -4.0035715 10227473
1.4945149 -0.65603006 -4.0077848 10227473
1.502625 -0.65775001 -4.009675 10227473
1.4675 -0.64208573 -4.0020289 10227473
1.47604 -0.64478993 -4.0039601 10227473
1.4833714 -0.64655 -4.0070786 10227473
1.4593333 -0.6336 -4.0008335 10227473
1.4642071 -0.63479644 -4.0042424 10227473
1.4741286 -0.63788569 -4.0079713 10227473
1.4579399 -0.62329996 -4.0009398 10227473
1.4646741 -0.62506956 -4.0057044 10227473
1.4707665 -0.62789994 -4.0095 10227473
1.43905 -0.61202502 -4.0005999 10227473
1.4452938 -0.61466879 -4.0026064 10227473
1.4551964 -0.61447144 -4.0045109 10227473
1.4627583 -0.61764169 -4.0064578 10227473
1.4374624 -0.60488749 -4.0019374 10227473
1.4443104 -0.6054579 -4.0050368 10227473
1.4528251 -0.60598749 -4.0084124 10227473
1.4079 -0.59009999 -4.0001998 10227473
1.4153666 -0.59256667 -4.0006838 10227473
1.4263999 -0.59177995 -4.0019398 10227473
1.4341383 -0.59344614 -4.0051155 10227473
1.443975 -0.59702498 -4.0077 10227473
1.4091333 -0.58423334 -4.0001335 10227473
1.4149001 -0.58557135 -4.0018668 10227473
1.426308 -0.58526403 -4.0056319 10227473
1.4339285 -0.58639288 -4.0086641 10227473
1.4071001 -0.5710333 -4.0011339 10227473
1.4150068 -0.5740267 -4.00284 10227473
1.4240738 -0.5745579 -4.0065947 10227473
1.4345 -0.57373685 -4.0096054 10227473
1.3971599 -0.56221998 -4.0043397 10227473
1.404819 -0.56551152 -4.0056152 10227473
1.4146562 -0.56708747 -4.0066309 10227473
1.42268 -0.56724006 -4.0080094 10227473
1.4330333 -0.56823331 -4.0096998 10227473
1.3945819 -0.55853635 -4.0069637 10227473
1.3488667 -0.51190001 -4.0007334 10227473
1.3544749 -0.51289165 -4.0012755 10227473
1.3615558 -0.51413333 -4.0030894 10227473
1.3461461 -0.5044539 -4.0019078 10227473
1.3544048 -0.50552863 -4.0038714 10227473
1.36406 -0.50358003 -4.0055399 10227473
1.3372667 -0.49345002 -4.0013499 10227473
1.3451647 -0.4954353 -4.0046997 10227473
1.3550349 -0.49439994 -4.0066652 10227473
1.3648449 -0.49512497 -4.0073605 10227473
1.3283165 -0.48255002 -4.0039663 10227473
1.334048 -0.48527774 -4.0051041 10227473
1.3455714 -0.48811427 -4.0084 10227473
1.3534199 -0.48901999 -4.0092998 10227473
1.2886287 -0.4716714 -4.0038714 10227473
1.2939463 -0.47276157 -4.0047998 10227473
1.3028636 -0.47169089 -4.0018182 10227473
1.3199 -0.4707 -4.0004997 10227473
1.32485 -0.47481 -4.0050201 10227473
1.3318 -0.4795 -4.0096998 10227473
1.2882832 -0.46413329 -4.0024667 10227473
1.2941158 -0.46545997 -4.0045524 10227473
1.3049947 -0.46508422 -4.0038576 10227473
1.3143176 -0.46432358 -4.0036645 16711680
1.3259693 -0.46478084 -4.0069804 10227473
1.3306334 -0.46496662 -4.0094333 10227473
1.28836 -0.45536998 -4.0039501 10227473
1.2949288 -0.45643216 -4.0056963 10227473
1.3037925 -0.45840767 -4.0076923 10227473
1.31659 -0.4571 -4.0088596 16711680
1.3238391 -0.45651302 -4.0079436 10227473
1.33055 -0.458 -4.00945 10227473
1.2873 -0.4481 -4.0096998 16711680
1.2652688 -0.39381871 -4.0042439 10227473
1.2571 -0.38390005 -4.0015202 10227473
1.2646421 -0.38559473 -4.0059209 10227473
1.2733667 -0.38253337 -4.0096669 10227473
1.2475333 -0.37360001 -4.0013671 10227473
1.2557167 -0.37524998 -4.0045667 10227473
1.26478 -0.37627998 -4.00842 10227473
1.2709 -0.37979999 -4.0099001 10227473
1.2369 -0.3628 -4.0008497 10227473
1.2442001 -0.3655 -4.0031199 10227473
1.2540334 -0.36656666 -4.0073833 10227473
1.2266667 -0.35216662 -4.0008669 10227473
1.235725 -0.35379997 -4.004025 10227473
1.2456 -0.35474998 -4.0079999 10227473
1.2501999 -0.35790002 -4.0089002 10227473
1.2156 -0.34209999 -4.0001998 10227473
1.2269666 -0.34399998 -4.0042667 10227473
1.2349 -0.345 -4.007575 10227473
1.2436 -0.34869999 -4.0098 10227473
1.20645 -0.33300003 -4.0011501 10227473
1.21464 -0.33398002 -4.00388 10227473
1.222725 -0.33505002 -4.007 10227473
1.2308 -0.33970001 -4.0085998 10227473
1.1850333 -0.32086667 -4.0005665 10227473
1.1962571 -0.3218143 -4.0010576 10227473
1.2042834 -0.3246583 -4.0033836 10227473
1.214075 -0.32482502 -4.0079751 10227473
1.1585751 -0.31092501 -4.0021 10227473
1.164996 -0.31315768 -4.0040689 10227473
1.1748401 -0.31541333 -4.0035567 10227473
1.1851001 -0.31533334 -4.0030732 10227473
1.1951824 -0.31542057 -4.004612 10227473
1.2027 -0.31720001 -4.0071898 10227473
1.2104 -0.31999999 -4.0089998 10227473
1.1558572 -0.30547857 -4.0054893 16711680
1.1651272 -0.30715454 -4.0089002 16711680
1.175565 -0.30420503 -4.0082598 16711680
1.1845348 -0.3040348 -4.0067568 16711680
1.1932067 -0.30628666 -4.0083137 10227473
1.1566286 -0.29531428 -4.0077238 16711680
1.1608 -0.2942 -4.0100002 16711680
1.17865 -0.29865 -4.0089498 16711680
1.1846999 -0.29797497 -4.0082126 16711680
1.19045 -0.29834998 -4.00945 10227473
1.1571667 -0.28620833 -4.0074668 16711680
1.1617857 -0.28401431 -4.0089283 16711680
1.1582499 -0.27480623 -4.0025187 16711680
1.1654577 -0.27590382 -4.0069461 10227473
1.1753875 -0.2744 -4.0078292 10227473
1.181 -0.2746 -4.0100002 10227473
1.1275001 -0.26249999 -4.0014 10227473
1.1371 -0.26370835 -4.0030003 10227473
1.1418333 -0.26583335 -4.0044665 10227473
1.1581 -0.26601249 -4.0053878 10227473
1.1644646 -0.26728234 -4.0080352 10227473
1.1730714 -0.26922858 -4.0094709 10227473
1.1278 -0.25396669 -4.000433 10227473
1.135428 -0.254868 -4.0019951 10227473
1.1427499 -0.2545222 -4.006228 10227473
1.1257583 -0.24428332 -4.0017414 10227473
1.1352628 -0.24536295 -4.0047297 10227473
1.1415082 -0.24779165 -4.0081997 10227473
1.10532 -0.23128003 -4.0018201 10227473
1.1161364 -0.23317726 -4.0029902 10227473
1.1230582 -0.23453337 -4.0060415 10227473
1.13351 -0.23585001 -4.00876 10227473
1.0965366 -0.22516331 -4.0052333 10227473
1.1056647 -0.22838822 -4.0076408 10227473
1.1144534 -0.22753997 -4.0078468 10227473
1.1216333 -0.22850001 -4.0097337 10227473
1.0867101 -0.21201999 -4.0008502 10227473
1.0937477 -0.2160174 -4.0051517 10227473
1.0755737 -0.2041842 -4.0024371 10227473
1.0852704 -0.20619999 -4.0039411 10227473
1.0922867 -0.20787333 -4.0076733 10227473
1.0674 -0.1903 -4.0016999 10227473
1.0750846 -0.19471537 -4.004746 10227473
1.0836693 -0.19519229 -4.0079918 10227473
1.0583 -0.18049999 -4.0007997 10227473
1.065465 -0.18506499 -4.0040851 10227473
1.0737535 -0.18709333 -4.00808 10227473
1.0825 -0.1892 -4.0095 10227473
1.0289 -0.17095 -4.00175 10227473
1.03405 -0.17081667 -4.001267 10227473
1.0439399 -0.1705 -4.0011401 10227473
1.0554235 -0.17462353 -4.0027122 10227473
1.0644375 -0.17488748 -4.0077 10227473
1.071 -0.1776 -4.0100002 10227473
1.0258666 -0.16638333 -4.0027256 10227473
1.0356541 -0.1664625 -4.0066371 10227473
1.0442348 -0.16759129 -4.0065303 10227473
1.054225 -0.16835 -4.0086122 10227473
1.06275 -0.16925 -4.0091 10227473
1.0130334 -0.12193333 -4.0080504 10227473
0.99879998 -0.1111 -4.0004001 10227473
1.0046138 -0.1136931 -4.0042477 10227473
1.01132 -0.11828 -4.00846 10227473
0.98599279 -0.10221428 -4.0034285 10227473
0.9947539 -0.10453846 -4.0056005 10227473
1.0027077 -0.10831538 -4.0066156 10227473
0.97887141 -0.093514279 -4.0038004 10227473
0.98216355 -0.095659085 -4.0059185 10227473
0.96940005 -0.080399998 -4.0007997 10227473
0.97422099 -0.084820837 -4.0049253 10227473
0.98114997 -0.088274993 -4.0090499 10227473
0.96674234 -0.073553845 -4.0043035 10227473
0.97075999 -0.079180002 -4.007 10227473
0.95712227 -0.062899992 -4.0026002 10227473
0.96395707 -0.065252371 -4.0068092 10227473
0.90924001 -0.050799999 -4.0023198 8534430
0.91421342 -0.05438333 -4.0064702 16711680
0.92507499 -0.052995831 -4.003191 10227473
0.95541334 -0.057093333 -4.003561 10227473
0.96588463 -0.057261534 -4.0092607 10227473
0.97059995 -0.050700001 -4.0093999 10227473
0.90818328 -0.045794439 -4.002861 8534430
0.91436869 -0.044731256 -4.0056682 16711680
0.92452103 -0.045484215 -4.0036049 10227473
0.96755004 -0.048699997 -4.0083003 10227473
0.9148556 -0.038522221 -4.0009117 16711680
0.92197502 -0.032874998 -4.000875 16711680
0.91776663 -0.022766668 -4.0022335 16711680
0.9220286 -0.025700001 -4.0043139 16711680
0.9348889 -0.021566667 -4.0081663 16711680
0.94050002 -0.02135 -4.0098 16711680
0.91710001 -0.01368125 -4.0027943 16711680
0.92439997 -0.013455556 -4.0055995 16711680
0.93584341 -0.015279999 -4.0079365 10227473
0.94019997 -0.0163 -4.0091667 10227473
0.89779997 -0.00029999999 -4.0009999 10227473
0.90548331 -0.0021583331 -4.0011582 10227473
0.91476953 -0.0045826086 -4.0025563 10227473
0.92647821 -0.0043478259 -4.0066481 10227473
0.93181992 -0.0064600003 -4.0094399 10227473
0.88592398 0.0057959999 -4.0055275 10227473
0.89459312 0.0021827586 -4.0061345 10227473
0.90492415 0.0050275857 -4.0070615 10227473
0.91435552 0.004288889 -4.0064549 10227473
0.92545831 0.0021499998 -4.0083919 10227473
0.87752503 0.016375 -4.0026083 10227473
0.88300002 0.015177778 -4.0066404 10227473
0.89169997 0.0199 -4.0092998 10227473
0.90879995 0.0099999998 -4.0092001 10227473
0.86949998 0.025999999 -4.0001998 10227473
0.87498087 0.024976924 -4.003592 10227473
0.8851999 0.024504544 -4.0065098 10227473
0.89342344 0.025917644 -4.0076008 10227473
0.86729985 0.034933332 -4.0015597 10227473
0.87420768 0.034192309 -4.004777 10227473
0.8872143 0.032114282 -4.0064859 10227473
0.89173335 0.030966666 -4.0074 10227473
0.85170001 0.049800001 -4.0004001 10227473
0.86610001 0.0425 -4.0023003 10227473
0.84489 0.054946665 -4.0029297 10227473
0.85349172 0.052616671 -4.0037584 10227473
0.83989996 0.062700003 -4.0001998 10227473
0.84664124 0.06497059 -4.0016651 10227473
0.85313332 0.065549999 -4.0054836 10227473
0.84754008 0.077559993 -4.0006599 10227473
0.85411215 0.075406052 -4.0047884 10227473
0.82494003 0.088190004 -4.0019503 10227473
0.83490735 0.086292602 -4.0051365 10227473
0.84458387 0.083825789 -4.0044546 10227473
0.85250831 0.082458332 -4.0058918 10227473
0.81635332 0.095526673 -4.0018935 10227473
0.82393342 0.093594439 -4.0045228 10227473
0.83457917 0.093891658 -4.0076542 10227473
0.84129995 0.094159991 -4.0093403 10227473
0.80949998 0.10765 -4.0004497 10227473
0.81507498 0.10525625 -4.0031996 10227473
0.82537729 0.10590455 -4.0074363 10227473
0.83407152 0.10345 -4.0079861 10227473
0.80771995 0.1165 -4.0012999 10227473
0.8155458 0.1139375 -4.0055251 10227473
0.82439995 0.11278 -4.0093203 10227473
0.83219999 0.1103 -4.0096998 10227473
0.79728752 0.1285125 -4.0016127 10227473
0.80502701 0.12591352 -4.0049915 10227473
0.81219995 0.12183333 -4.008667 10227473
0.78693998 0.13754001 -4.0012798 10227473
0.79362595 0.13427407 -4.0056667 10227473
0.8003 0.1302 -4.0088 10227473
0.77910006 0.14735001 -4.0008497 10227473
0.78425783 0.14552633 -4.0034261 10227473
0.79325455 0.14554544 -4.0080724 10227473
0.77847499 0.15395001 -4.0007253 10227473
0.78367335 0.15600665 -4.0048103 10227473
0.79175001 0.15095 -4.0091996 10227473
0.76739997 0.16884999 -4.0024247 10227473
0.77492905 0.16481289 -4.004539 10227473
0.78183329 0.16133334 -4.0067501 10227473
0.7489 0.17870001 -4.0011001 10227473
0.7560308 0.17647694 -4.0048537 10227473
0.76370001 0.1722368 -4.0062213 10227473
0.73748326 0.18678333 -4.001883 10227473
0.74453074 0.18513848 -4.0046501 10227473
0.75405622 0.18431252 -4.0080123 10227473
0.72852004 0.19868 -4.0016999 10227473
0.73573005 0.19506501 -4.00565 10227473
0.74347788 0.19335555 -4.008678 10227473
0.75080001 0.1917 -4.0095 10227473
0.70769995 0.2086 -4.0001998 10227473
0.71544671 0.20732667 -4.0024529 10227473
0.72559583 0.20450419 -4.0037498 10227473
0.7330929 0.20304999 -4.0080857 10227473
0.70895004 0.21100001 -4.0004997 10227473
0.71594483 0.21388961 -4.0023961 10227473
0.72333848 0.21494615 -4.0079613 10227473
0.71497506 0.22525711 -4.0034428 10227473
0.72065002 0.22517502 -4.0088749 10227473
0.69980001 0.23979999 -4.0004001 10227473
0.70702356 0.23761176 -4.0029526 10227473
0.71316206 0.2344586 -4.0054069 10227473
0.68873334 0.2489 -4.0020332 10227473
0.69547945 0.24476765 -4.0052061 10227473
0.70342857 0.24124284 -4.0075855 10227473
0.68767494 0.25459167 -4.0028586 10227473
0.69448423 0.25487891 -4.007453 10227473
0.66806674 0.26808333 -4.0021334 10227473
0.67387998 0.26635426 -4.0047574 10227473
0.68528003 0.26436999 -4.0050797 10227473
0.69278663 0.26394004 -4.0076933 10227473
0.66532224 0.27177775 -4.0028334 10227473
0.67321426 0.27154285 -4.0059719 10227473
0.68674773 0.27393046 -4.0072083 10227473
0.69125003 0.2714 -4.0092998 10227473
2.0771298 -1.34677 -3.9984651 7745120
1.9088922 -1.1546307 -3.9980149 10790151
1.9115909 -1.1551727 -3.9989452 10790151
1.8357126 -1.096025 -3.9923248 10971096
1.8180001 -1.0811 -3.9916 10971096
1.826075 -1.084875 -3.9930999 10971096
1.8348 -1.0846399 -3.9962401 10971096
1.8416752 -1.086925 -3.9980252 10971096
1.8152333 -1.0725 -3.9941332 10971096
1.8239332 -1.0748334 -3.9970667 10971096
1.8332251 -1.0785251 -3.9985752 10971096
1.80555 -1.0647751 -3.9917877 10971096
1.8160857 -1.0639857 -3.9969287 10971096
1.8229333 -1.0676501 -3.9992502 10971096
1.796 -1.053 -3.9918499 10971096
1.805743 -1.053 -3.9963284 10971096
1.8125749 -1.0551875 -3.9984748 10971096
1.7875501 -1.045 -3.99155 10971096
1.7966667 -1.0434666 -3.996383 10971096
1.8023602 -1.0458266 -3.9982803 10971096
1.7778364 -1.0331727 -3.9924817 10971096
1.7839469 -1.0351133 -3.9941604 10971096
1.794425 -1.0333625 -3.9976876 10971096
1.8026428 -1.0344714 -3.9994287 10971096
1.7675 -1.0275 -3.9902999 10971096
1.7753299 -1.0258651 -3.99193 10971096
1.7851701 -1.0247951 -3.99581 10971096
1.7926446 -1.0272 -3.9986222 10971096
1.80375 -1.02885 -3.99945 10971096
1.7856876 -1.0188501 -3.9929252 10971096
1.79215 -1.0181125 -3.9979999 10971096
1.6949 -0.95045 -3.9902999 1422543
1.70425 -0.95141661 -3.9931164 1422543
1.6875333 -0.94655007 -3.9915667 15803009
1.6954035 -0.94564843 -3.9918351 1422543
1.7049093 -0.94516569 -3.993125 1422543
1.7144177 -0.94542938 -3.9960356 1422543
1.7248114 -0.94323331 -3.9956722 1422543
1.7351882 -0.94379425 -3.996582 1422543
1.7451651 -0.94406998 -3.9966147 1422543
1.75185 -0.94535005 -3.9981625 1422543
1.6883333 -0.93276674 -3.9906335 15803009
1.6959001 -0.93330771 -3.9914308 15803009
1.7036077 -0.9377076 -3.9922848 1422543
1.7275 -0.93970001 -4 1422543
1.7300999 -0.94 -3.9993 1422543
1.6878902 -0.92383993 -3.9922798 15803009
1.6937953 -0.92667145 -3.9936383 15803009
1.7030001 -0.92730004 -3.9961998 1422543
1.6837113 -0.91812223 -3.993289 15803009
1.6365304 -0.87428576 -3.9959981 16711680
1.6407999 -0.87551999 -3.9988401 16711680
1.6020377 -0.82387 -3.9938021 15803009
1.6014572 -0.81770003 -3.9907715 15803009
1.5175 -0.74250001 -3.9912 10227473
1.5231142 -0.74157143 -3.9907432 10227473
1.531875 -0.74177498 -3.9911501 10227473
1.5181334 -0.73543334 -3.9907165 10227473
1.524731 -0.73524994 -3.9950941 10227473
1.5314667 -0.73754996 -3.995492 10227473
1.5252856 -0.72307146 -3.9987857 10227473
1.5338 -0.72145003 -3.9993 10227473
1.5262523 -0.71522391 -3.9978478 10227473
1.5346111 -0.71478879 -3.9971666 10227473
1.5285999 -0.706725 -3.9988999 10227473
1.5316499 -0.70723337 -3.996433 10227473
1.4869429 -0.69214284 -3.9921286 10227473
1.4854875 -0.68588746 -3.9918504 10227473
1.4924999 -0.685 -3.9964502 10227473
1.4567333 -0.67243338 -3.9901669 10227473
1.4626251 -0.6717 -3.9901752 10227473
1.47675 -0.67268753 -3.9917626 10227473
1.4838588 -0.6738655 -3.9952552 10227473
1.4950688 -0.6756562 -3.9978876 10227473
1.5025001 -0.67626673 -3.99828 10227473
1.4666176 -0.66405886 -3.9919999 10227473
1.4751184 -0.66650009 -3.9958706 10227473
1.4811 -0.6699 -3.9982998 10227473
1.4680367 -0.65511054 -3.9919422 10227473
1.4737293 -0.65457648 -3.996659 10227473
1.4572001 -0.64277148 -3.9912717 10227473
1.4646401 -0.64543998 -3.9946737 10227473
1.4724427 -0.64840007 -3.9978287 10227473
1.4480749 -0.63357496 -3.991575 10227473
1.4550318 -0.63591045 -3.9957209 10227473
1.4613 -0.63980001 -3.9995 10227473
1.4458667 -0.62368888 -3.9947169 10227473
1.4537668 -0.62591112 -3.9986222 10227473
1.4358264 -0.61358428 -3.9949 10227473
1.44366 -0.61839002 -3.9980798 10227473
1.4088 -0.60049999 -3.9901998 10227473
1.4152668 -0.60096669 -3.9929166 10227473
1.4256831 -0.60421664 -3.9937556 10227473
1.4325999 -0.60628569 -3.9973145 10227473
1.3982167 -0.59341663 -3.9938998 10227473
1.4047033 -0.59524065 -3.995609 10227473
1.4145579 -0.59717894 -3.9978473 10227473
1.4249222 -0.5975889 -3.9984667 10227473
1.3957924 -0.58497697 -3.9934998 10227473
1.4037354 -0.58623528 -3.9985058 10227473
1.39685 -0.57505 -3.9931312 10227473
1.4029468 -0.57438666 -3.9979401 10227473
1.3884999 -0.56156665 -3.9920666 10227473
1.3944407 -0.56528151 -3.994348 10227473
1.4019001 -0.56910002 -3.9993 10227473
1.3473098 -0.55214 -3.99227 10227473
1.3475 -0.5499 -3.9909 10227473
1.3519832 -0.52079999 -3.9934669 10227473
1.3378 -0.51209998 -3.9909 10227473
1.3446645 -0.51482576 -3.9952421 10227473
1.3507 -0.51931995 -3.9970002 10227473
1.3267999 -0.50090003 -3.9909 10227473
1.3351916 -0.50516665 -3.9933581 10227473
1.342975 -0.50705004 -3.9985251 10227473
1.3183 -0.49239999 -3.9916 10227473
1.3251001 -0.4952715 -3.9935572 10227473
1.3333429 -0.49579999 -3.9980283 10227473
1.2775 -0.48029998 -3.9938002 10227473
1.296625 -0.48162499 -3.9909496 10227473
1.3036799 -0.48138008 -3.9913998 10227473
1.3153666 -0.48345557 -3.9920225 10227473
1.3229668 -0.48465002 -3.9968336 10227473
1.2781501 -0.47781667 -3.9976668 10227473
1.2850925 -0.47606158 -3.9950652 10227473
1.2942858 -0.47504643 -3.9961748 10227473
1.3063378 -0.4753724 -3.9945562 10227473
1.3158925 -0.47492003 -3.9932549 16711680
1.3214847 -0.47577694 -3.9981613 10227473
1.2875999 -0.46950001 -3.9976001 10227473
1.3099 -0.4698 -3.9982002 16711680
1.3144001 -0.46899998 -3.9985497 16711680
1.2467334 -0.41176665 -3.9930003 10227473
1.24568 -0.40510002 -3.99247 10227473
1.2527 -0.4025 -3.9969001 10227473
1.239 -0.39110002 -3.9910002 10227473
1.2452941 -0.39487648 -3.9924827 10227473
1.2539091 -0.39346358 -3.9964821 10227473
1.2353168 -0.38440001 -3.9919834 10227473
1.24617 -0.38568002 -3.9956098 10227473
1.2538615 -0.38662308 -3.9984 10227473
1.2270601 -0.37458 -3.9911201 10227473
1.2341599 -0.37706003 -3.9934802 10227473
1.2440751 -0.37722501 -3.9979999 10227473
1.2171249 -0.36294997 -3.9917002 10227473
1.2248166 -0.36434996 -3.9948168 10227473
1.23322 -0.36560002 -3.9978597 10227473
1.20605 -0.352575 -3.9921503 10227473
1.21545 -0.35494998 -3.9945998 10227473
1.225 -0.35536 -3.9989998 10227473
1.1893001 -0.3418 -3.9905 10227473
1.1953666 -0.34486112 -3.9926002 10227473
1.2045375 -0.34523749 -3.9952874 10227473
1.2144834 -0.34595001 -3.9982667 10227473
1.1856445 -0.33251664 -3.9933667 10227473
1.1953464 -0.33490768 -3.9955773 10227473
1.2026 -0.33702499 -3.9979751 10227473
1.1495 -0.32179999 -3.9910998 10227473
1.1544038 -0.32496291 -3.992537 10227473
1.1640069 -0.32514486 -3.9925101 10227473
1.1758181 -0.32434094 -3.9955862 10227473
1.1836706 -0.32662353 -3.9977648 10227473
1.1944 -0.32720003 -3.9984374 10227473
1.13805 -0.31239998 -3.9905 10227473
1.1453665 -0.31565559 -3.992239 10227473
1.1562425 -0.31474003 -3.9940553 10227473
1.1639849 -0.31647575 -3.9958603 10227473
1.174175 -0.31920001 -3.998925 10227473
1.1276571 -0.3031857 -3.9915142 10227473
1.1332 -0.30504999 -3.9918249 10227473
1.1467999 -0.30833334 -3.9954996 10227473
1.1516 -0.30936667 -3.9977002 16711680
1.1224999 -0.26249999 -3.9989998 16711680
1.0794001 -0.2507 -3.9925001 10227473
1.0836771 -0.25177693 -3.9967458 10227473
1.0953499 -0.2516357 -3.9977646 10227473
1.1027778 -0.25157776 -3.9969001 10227473
1.11699 -0.25373 -3.9972198 10227473
1.12272 -0.25386 -3.99892 10227473
1.0765998 -0.24522272 -3.9933136 10227473
1.0844482 -0.24391848 -3.9974372 10227473
1.0943832 -0.24417223 -3.9979334 10227473
1.1047537 -0.24525386 -3.9979463 10227473
1.1136646 -0.24568824 -3.9979944 10227473
1.12146 -0.24621999 -3.9995201 10227473
1.0774167 -0.23473333 -3.9920335 10227473
1.085025 -0.234725 -3.9952374 10227473
1.0951221 -0.2348889 -3.9969628 10227473
1.104382 -0.23639998 -3.9988368 10227473
1.1129334 -0.23751669 -3.9995165 10227473
1.07757 -0.22549 -3.9920001 10227473
1.0854999 -0.22504707 -3.995635 10227473
1.0926176 -0.22580002 -3.9985354 10227473
1.0696 -0.2123 -3.9910998 10227473
1.0755148 -0.21440372 -3.9942369 10227473
1.0853 -0.21615332 -3.9983401 10227473
1.0675 -0.2045 -3.994112 10227473
1.0724581 -0.20787498 -3.997992 10227473
1.0566857 -0.19395712 -3.9913714 10227473
1.0645211 -0.19588947 -3.9954951 10227473
1.0380332 -0.18096666 -3.9909334 10227473
1.0461 -0.18214001 -3.9920001 10227473
1.0554612 -0.18556112 -3.9945834 10227473
1.06178 -0.18876 -3.9969997 10227473
1.0265841 -0.17319599 -3.9949563 10227473
1.034673 -0.17466216 -3.995357 10227473
1.0456444 -0.17485183 -3.9951632 10227473
1.0528351 -0.17652939 -3.9976118 10227473
1.0188999 -0.16348334 -3.9917002 10227473
1.0220369 -0.16577896 -3.9962215 10227473
1.0190001 -0.1576 -3.9925001 10227473
1.021 -0.15833333 -3.9966667 10227473
0.98759997 -0.12295999 -3.9916201 10227473
0.99169999 -0.12388 -3.99244 10227473
0.97759992 -0.113075 -3.9911501 10227473
0.98401344 -0.11504333 -3.9934702 10227473
0.99484497 -0.11469999 -3.9970903 10227473
0.96819997 -0.1014 -3.99125 10227473
0.97531056 -0.10475264 -3.9941003 10227473
0.9849875 -0.10665001 -3.9978685 10227473
0.99321997 -0.10864 -3.99892 10227473
0.95795 -0.090850003 -3.9912 10227473
0.96559167 -0.093825005 -3.9928503 10227473
0.97485292 -0.095394105 -3.9975116 10227473
0.94989997 -0.082800001 -3.9909 10227473
0.9558 -0.084877774 -3.992239 10227473
0.96547675 -0.083790004 -3.9960101 10227473
0.97145998 -0.088479996 -3.99828 10227473
0.92631662 -0.072333328 -3.9917581 16711680
0.93334442 -0.071966663 -3.9914441 10227473
0.94732141 -0.073014289 -3.9915071 10227473
0.95587641 -0.074300006 -3.9950526 10227473
0.96359336 -0.075506665 -3.9976599 10227473
0.92453158 -0.065174282 -3.9931915 16711680
0.93561381 -0.066649996 -3.9936414 10227473
0.94454217 -0.065973684 -3.9937155 10227473
0.95427507 -0.066900007 -3.9979 10227473
0.9605 -0.07 -3.9991 10227473
0.90912002 -0.050819997 -3.99736 8534430
0.91415185 -0.05304483 -3.994293 8534430
0.92438471 -0.057099994 -3.9958849 16711680
0.93436354 -0.054236364 -3.9972 10227473
0.94617009 -0.055394996 -3.9965799 10227473
0.95118749 -0.054462504 -3.9990246 10227473
0.90671521 -0.045219231 -3.9951584 8534430
0.92989999 -0.0425 -3.9998002 10227473
0.93520999 -0.045870002 -3.9976296 16711680
0.94463998 -0.046999998 -3.99668 16711680
0.9522 -0.047499999 -3.9991 10227473
0.90663344 -0.03543333 -3.9945426 8534430
0.91422141 -0.033842858 -3.9984293 16711680
0.92484999 -0.036449999 -3.99945 16711680
0.89629996 -0.020299999 -3.9901998 10227473
0.90607208 -0.025649998 -3.9928942 16711680
0.91312784 -0.025805557 -3.9976556 16711680
0.88849998 -0.012149999 -3.9905 10227473
0.89586669 -0.016016666 -3.9920337 10227473
0.90491819 -0.014654544 -3.9956546 16711680
0.91174996 -0.015125001 -3.9992249 16711680
0.87865007 -0.00085000001 -3.9905 10227473
0.88598341 -0.0041944445 -3.9914773 10227473
0.89446837 -0.0039315792 -3.9958475 10227473
0.90546662 -0.0058500003 -3.9991415 10227473
0.86568749 0.0073375003 -3.9921374 10227473
0.87427497 0.0059583336 -3.9931457 10227473
0.88412422 0.0046484843 -3.9958277 16711680
0.89184999 0.0010500001 -3.9989998 10227473
0.85964996 0.016449999 -3.9903998 10227473
0.86387581 0.015331037 -3.9929035 10227473
0.87566316 0.01396842 -3.9978263 10227473
0.88089997 0.0101 -3.9988 16711680
0.85753334 0.027683334 -3.9912 10227473
0.86396921 0.023746151 -3.9941001 10227473
0.87180001 0.020199999 -3.9998999 10227473
0.85587615 0.035595242 -3.9928718 10227473
0.86316246 0.034525 -3.9973001 10227473
0.84617829 0.046460871 -3.9936869 10227473
0.85394341 0.044943482 -3.9954221 10227473
0.86153328 0.043916665 -3.9980335 10227473
0.84339994 0.051033329 -3.9988 10227473
0.85730004 0.0502 -3.9993 10227473
0.83518332 0.066599995 -3.9982166 10227473
0.84179997 0.067033328 -3.9994669 10227473
0.81817782 0.07608889 -3.9928775 10227473
0.82439226 0.075807691 -3.9954617 10227473
0.83534616 0.075792313 -3.9973261 10227473
0.84336358 0.075609088 -3.9991729 10227473
0.8096 0.089199997 -3.9916 10227473
0.81562859 0.085709512 -3.9951763 10227473
0.82488334 0.082783334 -3.9988248 10227473
0.8337 0.080916665 -3.9989665 10227473
0.80616194 0.096114285 -3.9932673 10227473
0.81301427 0.093100004 -3.9975998 10227473
0.79569989 0.1072875 -3.9911499 10227473
0.80481201 0.10332 -3.9955521 10227473
0.81120002 0.1001 -4 10227473
0.78864998 0.11575 -3.9913001 10227473
0.79645544 0.11561111 -3.9942114 10227473
0.80332303 0.11553077 -3.9974151 10227473
0.77910006 0.1279 -3.9907 10227473
0.78600907 0.12534545 -3.9933817 10227473
0.7954933 0.12374666 -3.9962399 10227473
0.80300003 0.12335453 -3.9983816 10227473
0.73736662 0.13956666 -3.9909668 10227473
0.76873326 0.13813333 -3.9908667 10227473
0.77474546 0.13592726 -3.9925184 10227473
0.78542864 0.13312858 -3.9977713 10227473
0.73565817 0.14504582 -3.9927664 10227473
0.74429393 0.14512424 -3.9930515 10227473
0.7541998 0.14406799 -3.9928362 10227473
0.76598006 0.14574 -3.9937751 10227473
0.77415711 0.14539286 -3.9967213 10227473
0.78160006 0.14 -3.9993 10227473
0.73613691 0.15327898 -3.9918365 10227473
0.74519503 0.152895 -3.9921501 10227473
0.75366002 0.15625501 -3.992995 10227473
0.76564616 0.15517692 -3.9961843 10227473
0.77245003 0.15626666 -3.9983835 10227473
0.75667191 0.16544399 -3.9919839 10227473
0.76487696 0.16476537 -3.9967005 10227473
0.77122498 0.16222499 -3.9985497 10227473
0.73526156 0.17773847 -3.9935999 10227473
0.7448833 0.17547777 -3.994617 10227473
0.75584435 0.17200001 -3.9960999 10227473
0.76075 0.17095 -3.9995999 10227473
0.72802496 0.18623334 -3.9940164 10227473
0.73345453 0.18315001 -3.9971044 10227473
0.71583563 0.19641429 -3.9923501 10227473
0.72480005 0.19405602 -3.9959793 10227473
0.73150003 0.1917 -3.9998002 10227473
0.70606089 0.2062435 -3.9951873 10227473
0.71456957 0.20256956 -3.9974215 10227473
0.7222833 0.20201665 -3.9983499 10227473
0.69757783 0.21584445 -3.9917777 10227473
0.70434165 0.21394165 -3.9967835 10227473
0.71217328 0.21662669 -3.9985332 10227473
0.68743342 0.22715002 -3.9916501 10227473
0.69451112 0.22456667 -3.9927888 10227473
0.70480835 0.22480002 -3.9970083 10227473
0.71119994 0.22159998 -3.9990664 10227473
0.68481439 0.23514289 -3.9927425 10227473
0.69573754 0.23596247 -3.9970663 10227473
0.70398664 0.23379332 -3.9979935 10227473
0.67617774 0.24595554 -3.991622 10227473
0.68440992 0.24408999 -3.9952302 10227473
0.69229996 0.241 -3.9989998 10227473
0.66570002 0.25658333 -3.9921167 10227473
0.67504001 0.25522998 -3.9950249 10227473
0.68248004 0.25342 -3.9979401 10227473
0.65701425 0.26577145 -3.9917142 10227473
0.66431665 0.26420414 -3.995383 10227473
0.67287773 0.26175559 -3.9978113 10227473
0.6476 0.2775 -3.9901998 10227473
0.65597641 0.27497056 -3.9953647 10227473
0.66080004 0.2726 -3.9989753 10227473
0.6476 0.2825 -3.9907 10227473
2.0238733 -1.3333366 -3.98229 7745120
2.0089998 -1.3217599 -3.9809799 7745120
2.0153069 -1.3238366 -3.9827023 7745120
2.0223055 -1.327342 -3.9829156 7745120
2.0126221 -1.3188721 -3.9850664 7745120
1.9663749 -1.25502 -3.983515 10790151
1.8252333 -1.1125 -3.982233 10971096
1.81665 -1.104 -3.9804499 10971096
1.8251123 -1.1052749 -3.9841247 10971096
1.8325 -1.1044 -3.9872 10971096
1.8059 -1.0922 -3.9804001 10971096
1.81504 -1.09484 -3.9833798 10971096
1.8253999 -1.0971334 -3.9873998 10971096
1.804625 -1.08415 -3.9836752 10971096
1.81376 -1.085 -3.9875202 10971096
1.8210001 -1.0891 -3.9886999 10971096
1.795025 -1.0759 -3.9824002 10971096
1.80405 -1.0728 -3.98875 10971096
1.7851001 -1.0651333 -3.9816666 10971096
1.7939333 -1.0652667 -3.9863 10971096
1.8005 -1.0659 -3.9893 10971096
1.7754333 -1.0541333 -3.981967 10971096
1.7852668 -1.0558667 -3.9858668 10971096
1.7656751 -1.044225 -3.9822247 10971096
1.7746875 -1.0461999 -3.9850376 10971096
1.7821 -1.046 -3.9885998 10971096
1.7548168 -1.0342501 -3.9820335 10971096
1.76466 -1.03385 -3.98634 10971096
1.7718333 -1.0348334 -3.9888 10971096
1.755 -1.0275 -3.9854002 10971096
1.7616501 -1.0275 -3.98785 10971096
1.7783667 -1.0208668 -3.9886999 10971096
1.7785599 -1.0187401 -3.98698 10971096
1.7816142 -1.0177999 -3.9871857 10971096
1.6852999 -0.95141053 -3.985095 15803009
1.6934874 -0.95182496 -3.9885001 1422543
1.7025 -0.95239997 -3.9895 1422543
1.6786857 -0.94197142 -3.9816999 15803009
1.6822482 -0.94582802 -3.9857244 15803009
1.6689498 -0.93110001 -3.9807 15803009
1.6752 -0.93464768 -3.984117 15803009
1.6830875 -0.93571258 -3.9885559 15803009
1.6916749 -0.93855006 -3.9897747 15803009
1.6661928 -0.92439294 -3.9810858 15803009
1.6747111 -0.925111 -3.9834182 15803009
1.6833696 -0.92523485 -3.9876564 15803009
1.6649501 -0.91862506 -3.9808502 15803009
1.6753561 -0.91825628 -3.9847376 15803009
1.6815 -0.91940004 -3.98875 15803009
1.5992999 -0.83029997 -3.9832001 15803009
1.5992104 -0.82871568 -3.9843686 15803009
1.6004061 -0.82515883 -3.9880996 15803009
1.6011834 -0.81763327 -3.9897997 15803009
1.483925 -0.69507498 -3.9883378 10227473
1.4782332 -0.68316674 -3.9868555 10227473
1.4814399 -0.6854201 -3.9886401 10227473
1.4474249 -0.67175001 -3.9848001 10227473
1.4546273 -0.67532724 -3.988009 10227473
1.4655333 -0.67594993 -3.9889002 10227473
1.4733918 -0.67691666 -3.9889746 10227473
1.4455321 -0.66480398 -3.983716 10227473
1.4551034 -0.6656931 -3.9875724 10227473
1.4610834 -0.66421664 -3.9887333 10227473
1.4441799 -0.65527612 -3.9830081 10227473
1.4547178 -0.65581167 -3.9848707 10227473
1.4636801 -0.65511495 -3.9879103 10227473
1.43765 -0.64365709 -3.9823074 10227473
1.4446529 -0.64487368 -3.9864004 10227473
1.4550546 -0.64640915 -3.9874411 10227473
1.4618666 -0.64845002 -3.9889002 10227473
1.4166706 -0.63444704 -3.9815054 10227473
1.4251275 -0.6327889 -3.9833167 10227473
1.4353142 -0.6357857 -3.9834857 10227473
1.4426538 -0.63471544 -3.9883235 10227473
1.4181999 -0.62637144 -3.9826784 10227473
1.42454 -0.62604326 -3.9860971 10227473
1.4356678 -0.62451077 -3.9870856 10227473
1.4413666 -0.62690002 -3.9891665 10227473
1.40885 -0.61339998 -3.9802999 10227473
1.4158571 -0.61511433 -3.9825001 10227473
1.4252167 -0.61460006 -3.9872277 10227473
1.4317856 -0.6181286 -3.9881001 10227473
1.40789 -0.60522002 -3.9846096 10227473
1.4141215 -0.60618567 -3.9860427 10227473
1.4224334 -0.60890001 -3.9882336 10227473
1.3975 -0.59595001 -3.98875 10227473
1.4024168 -0.59733331 -3.9882834 10227473
1.3893666 -0.58109999 -3.9878664 10227473
1.3911 -0.58249998 -3.9891 10227473
1.378125 -0.5747 -3.9882748 10227473
1.3858761 -0.57479197 -3.987344 10227473
1.3915001 -0.57423335 -3.9891665 10227473
1.3775001 -0.56770003 -3.9873998 10227473
1.3853285 -0.56479526 -3.9868052 10227473
1.3918998 -0.56745005 -3.9886875 10227473
1.3375 -0.55019999 -3.9810998 10227473
1.3464499 -0.55250001 -3.98875 10227473
1.3825999 -0.55990005 -3.9873002 10227473
1.3374422 -0.54526323 -3.9817998 10227473
1.343785 -0.54575002 -3.986325 10227473
1.3360999 -0.53309995 -3.9811633 10227473
1.344 -0.53536844 -3.9819317 10227473
1.327475 -0.52371252 -3.9818375 10227473
1.3341875 -0.52514583 -3.9833338 10227473
1.3451571 -0.52557856 -3.9841926 10227473
1.3515601 -0.52488005 -3.98435 10227473
1.31698 -0.51424003 -3.9813004 10227473
1.3242801 -0.51489002 -3.9835596 10227473
1.3357087 -0.5150913 -3.9871347 10227473
1.3419858 -0.51801425 -3.9882145 10227473
1.3068401 -0.50283998 -3.9810801 10227473
1.314525 -0.50417495 -3.9845123 10227473
1.3249199 -0.50673997 -3.9870002 10227473
1.3320667 -0.50886667 -3.9886332 10227473
1.2872499 -0.49397495 -3.9816666 10227473
1.2942842 -0.49529597 -3.9824963 10227473
1.3051625 -0.49549377 -3.9848559 10227473
1.3135333 -0.49568331 -3.988533 10227473
1.3213 -0.49950001 -3.9895999 10227473
1.2775 -0.48029998 -3.99 10227473
1.2857116 -0.48381761 -3.984565 10227473
1.2935143 -0.48462379 -3.9866431 10227473
1.3050364 -0.48696363 -3.9883816 10227473
1.3102001 -0.48910001 -3.9897001 10227473
1.2675072 -0.47765714 -3.9817572 16711680
1.2765555 -0.47837219 -3.9835944 16711680
1.28185 -0.47949997 -3.983825 10227473
1.2547951 -0.46125004 -3.9857104 16711680
1.2487271 -0.45244545 -3.9807453 16711680
1.2533233 -0.45535591 -3.9843397 16711680
1.2497001 -0.44999999 -3.9821 16711680
1.2529322 -0.44741288 -3.9851186 16711680
1.22474 -0.43213999 -3.9826999 10227473
1.2248834 -0.42592919 -3.9823878 10227473
1.2322 -0.42229998 -3.9814999 10227473
1.2348615 -0.41505387 -3.9825926 10227473
1.241689 -0.41529998 -3.9877331 10227473
1.2344154 -0.40585384 -3.9833922 10227473
1.242 -0.4077 -3.9891 10227473
1.22465 -0.39391667 -3.9817495 10227473
1.2352626 -0.3950125 -3.9876373 10227473
1.2405 -0.39805001 -3.9893501 10227473
1.21506 -0.38369998 -3.9818399 10227473
1.225475 -0.38445005 -3.9869125 10227473
1.23225 -0.38714999 -3.9895 10227473
1.2068715 -0.37394288 -3.9821568 10227473
1.2139584 -0.37467495 -3.9855833 10227473
1.224 -0.37775001 -3.9888 10227473
1.1966221 -0.36517775 -3.9819224 10227473
1.2058166 -0.36683333 -3.9849668 10227473
1.21398 -0.36622003 -3.9886801 10227473
1.1882181 -0.35304543 -3.9823368 10227473
1.1938231 -0.35436925 -3.9852614 10227473
1.2032499 -0.357375 -3.9882751 10227473
1.13945 -0.34385002 -3.9803998 16711680
1.1432629 -0.34393707 -3.9815774 16711680
1.168125 -0.34144998 -3.9803498 4413123
1.1741999 -0.3418 -3.9802999 16711680
1.184104 -0.34444168 -3.9840701 16711680
1.192325 -0.34882501 -3.9887249 10227473
1.1451834 -0.33530003 -3.9813163 16711680
1.1551144 -0.33410004 -3.9831762 4413123
1.1651765 -0.33501178 -3.9831762 4413123
1.1749034 -0.33595482 -3.984304 16711680
1.18303 -0.33695 -3.9876897 16711680
1.1263294 -0.32167056 -3.9838471 10227473
1.1352799 -0.32467601 -3.9832799 10227473
1.1457771 -0.32555771 -3.9855382 10227473
1.1538 -0.327775 -3.9883664 4413123
1.1643223 -0.32900003 -3.9889557 4413123
1.1159713 -0.3142952 -3.9830046 10227473
1.1238784 -0.31448928 -3.987736 10227473
1.1333153 -0.31686154 -3.9885921 10227473
1.14305 -0.31915 -3.9890003 10227473
1.1082251 -0.308025 -3.981925 10227473
1.1159133 -0.30557334 -3.9848533 10227473
1.1230351 -0.30595502 -3.9877799 10227473
1.13225 -0.308525 -3.989325 10227473
1.1184 -0.29750001 -3.9859002 16711680
1.1205001 -0.30000001 -3.9875 16711680
1.0728 -0.26229998 -3.9819 10227473
1.0698 -0.25049999 -3.9810998 10227473
1.0737374 -0.25358751 -3.9824314 10227473
1.0672066 -0.24375334 -3.9837132 10227473
1.0723772 -0.24765001 -3.9871271 10227473
1.0583999 -0.23175 -3.9803998 10227473
1.0665041 -0.23539999 -3.9820957 10227473
1.0722589 -0.2356412 -3.9875355 10227473
1.0454427 -0.22252855 -3.980886 10227473
1.0554668 -0.22544664 -3.9814334 10227473
1.066481 -0.22555238 -3.9838476 10227473
1.0725112 -0.22582775 -3.9875779 10227473
1.0450749 -0.21721248 -3.980525 10227473
1.0568777 -0.21563333 -3.9808002 10227473
1.0639443 -0.21427223 -3.9848833 10227473
1.0715142 -0.21834286 -3.9886997 10227473
1.0386 -0.2014 -3.9805999 10227473
1.0460778 -0.20163333 -3.9819 10227473
1.0550158 -0.20210001 -3.9829419 10227473
1.0629667 -0.2049852 -3.9862449 10227473
1.0365856 -0.19559999 -3.9815431 10227473
1.0449849 -0.19584501 -3.9852645 10227473
1.0542071 -0.19717856 -3.9885995 10227473
1.0608001 -0.1998 -3.9881001 10227473
1.0277715 -0.18285002 -3.9840429 10227473
1.0344032 -0.18525334 -3.9851534 10227473
1.0431428 -0.18761429 -3.9873857 10227473
1.0172889 -0.17315556 -3.982589 10227473
1.0242221 -0.17697777 -3.9872556 10227473
1.0062728 -0.16355455 -3.9821911 10227473
1.0152099 -0.16578999 -3.9853899 10227473
0.97876668 -0.1506 -3.9821668 10227473
0.98186666 -0.152275 -3.9864085 10227473
1.0080143 -0.15432857 -3.9872427 10227473
1.0135001 -0.15739091 -3.987927 10227473
0.97801542 -0.1458846 -3.9817386 10227473
0.98140913 -0.14613636 -3.9836819 10227473
0.9777 -0.13156667 -3.9806664 10227473
0.98443991 -0.13172001 -3.9810603 10227473
0.99174279 -0.13178572 -3.9835141 10227473
0.97721756 -0.12484706 -3.9826641 10227473
0.98579043 -0.12698095 -3.9855762 10227473
0.99171668 -0.1276 -3.9872665 10227473
0.9672333 -0.11203334 -3.9814999 10227473
0.9744308 -0.11582308 -3.9854701 10227473
0.93887496 -0.10202499 -3.9813001 10227473
0.94455618 -0.1035375 -3.9827187 10227473
0.95467776 -0.10558888 -3.9830892 10227473
0.96464992 -0.1071 -3.9851336 10227473
0.97110003 -0.10965 -3.9881501 10227473
0.92880005 -0.092500001 -3.9805999 10227473
0.93497056 -0.095870592 -3.9811468 10227473
0.94444984 -0.095318757 -3.9834466 10227473
0.95435381 -0.095092326 -3.9870887 10227473
0.96019995 -0.0999 -3.9879999 10227473
0.92686355 -0.085545465 -3.9810543 10227473
