# .PCD v0.7 - Point Cloud Data file format
VERSION 0.7
FIELDS x y z rgba
SIZE 4 4 4 4
TYPE F F F U
COUNT 1 1 1 1
WIDTH 1169
HEIGHT 1
VIEWPOINT 0 0 0 1 0 0 0
POINTS 1169
DATA ascii
281.63 -30.215 -474.595 4287399029
282.53 -30.389999 -474.60501 4287071351
283.54333 -30.610001 -474.62668 4287463538
284.34998 -30.685001 -474.28998 4287070317
285.33667 -30.879999 -474.35336 4287200367
273.45154 -29.554617 -474.4393 4284306501
274.40997 -29.65 -474.556 4285688153
275.51602 -29.59 -474.46201 4285359961
276.47397 -29.644001 -474.556 4285752922
277.54333 -29.676666 -474.55334 4286017381
278.35001 -29.620001 -474.29999 4286609781
279.78 -29.85 -474.44 4286937714
251.99001 -28.66 -474.935 4280755741
252.00375 -28.65625 -474.92746 4280755741
251.52 -27.222498 -474.50998 4280164632
252.328 -27.268 -474.27399 4280426778
250.87402 -26.172001 -474.68399 4280230428
251.30048 -26.654091 -474.33234 4280099097
252.315 -26.817501 -474.13751 4280228891
247.96001 -25.07 -474.745 4280755483
248.3876 -25.241381 -474.55624 4280755229
249.56293 -25.525883 -474.57648 4280624159
250.52557 -25.576109 -474.46805 4280295965
245.66335 -24.110001 -474.8967 4281084197
246.64722 -24.178337 -474.59998 4280887329
247.42403 -24.668499 -474.47406 4280690464
248.14 -24.98 -474.01001 4280625437
242.78645 -23.308823 -474.31473 4281216808
243.52312 -23.726896 -474.41925 4281216290
244.51166 -23.702778 -474.49393 4281150243
245.3232 -23.795 -474.33682 4281149983
246.32001 -23.949999 -474.35336 4280822567
241.855 -22.865 -474.155 4281151530
242.12 -22.955 -474.25 4280823333
321.52698 -95.565552 -473.5011 4280229657
321.38293 -94.636658 -473.4696 4280163868
308.35202 -80.586906 -473.5231 4279768850
288.75 -47.549999 -473.25 4279309843
289.64667 -47.316666 -473.25 4279506964
290.45166 -47.189999 -473.43002 4279769111
291.25 -47.09 -473.73999 4279704088
291.785 -46.919998 -473.565 4279505425
292.45499 -46.659996 -473.5275 4279965198
293.57669 -46.25333 -473.45004 4279834128
294.44 -46.09 -473.79999 4279836950
294.48999 -45.84 -473.23001 4282461741
295.59094 -45.397274 -473.56546 4280557592
296.15002 -45.202499 -473.82874 4280229149
295.88397 -44.818001 -473.13998 4281016609
296.43744 -44.514378 -473.6069 4281148701
296.75665 -43.703335 -473.38336 4280886557
297.18399 -43.172001 -473.43805 4280493344
297.69501 -42.591251 -473.48749 4281148951
298.34799 -42.115997 -473.82001 4282662962
297.92001 -41.880001 -473.01001 4286076212
298.51599 -41.534668 -473.56732 4283781442
299.06 -41.029999 -473.87 4284769103
298.702 -40.374001 -473.33398 4284244312
299.22 -40.200001 -473.85999 4283451458
298.72501 -39.625 -473.185 4284107816
299.1925 -39.452499 -473.71753 4284633667
298.73999 -38.625 -473.19 4286932820
299.17499 -38.610001 -473.72 4286538830
298.77002 -37.623333 -473.41 4284962124
299.08502 -37.489998 -473.875 4285160259
298.69 -36.674 -473.59 4286016087
297.91 -35.41 -473.26999 4287462253
298.23499 -35.511665 -473.68335 4286412914
296.85001 -34.18 -473.04001 4283722843
297.42334 -34.517776 -473.47446 4284769887
298.07001 -35 -473.89001 4285556576
295.86002 -33.118332 -473.44336 4285558119
296.41077 -33.472313 -473.58615 4285229667
297.09 -33.939999 -473.76001 4283453514
292.94 -32.040001 -473.97 4286412398
293.78799 -32.185997 -473.51196 4286347122
294.62167 -32.516666 -473.36832 4286281842
295.32776 -32.837776 -473.41666 4285755496
289.39801 -31.116001 -473.62003 4286872951
290.44 -31.434999 -473.59747 4287003240
291.49454 -31.715454 -473.63 4287136119
292.45334 -31.796663 -473.4733 4285952359
293.26001 -31.959999 -473.375 4285953129
282.57501 -30.09 -473.58002 4287069039
283.53665 -30.256666 -473.52002 4287333752
284.565 -30.355 -473.315 4287266930
285.63 -30.57 -473.44 4287134568
286.51334 -30.74 -473.58667 4287070839
287.41 -30.810001 -473.55499 4286872691
288.46399 -30.883999 -473.43799 4286873210
272.5 -29.1 -473.76501 4285292627
273.41666 -29.183334 -473.82999 4285754724
274.32001 -29.17 -473.69998 4286543721
275.39001 -29.139999 -473.63333 4286609512
276.3667 -29.183332 -473.62332 4287135093
277.51999 -29.245998 -473.53998 4286873460
278.58334 -29.35 -473.49332 4287201650
279.54999 -29.439999 -473.33502 4287332725
280.63333 -29.663336 -473.44003 4287332986
281.755 -29.91 -473.53 4287069552
270.75 -28.83 -473.14999 4285424989
271.5 -28.84 -473.14001 4286017378
272.48798 -28.827999 -473.24399 4286083946
273.48666 -28.889999 -473.23999 4286347632
274.92999 -28.91 -473.20999 4286872434
275.79999 -28.93 -473.10999 4287727998
276.76999 -28.99 -473.03 4287990136
251.59366 -26.269093 -473.84091 4280295706
252.13 -26.280001 -473.82751 4280294938
248.83 -25.147499 -473.84998 4280427034
249.59001 -25.25 -473.83334 4280362013
250.64467 -25.273338 -473.57138 4280164637
251.46884 -25.541536 -473.34076 4280360215
252.15666 -25.384445 -473.29221 4279966995
245.7005 -24.173811 -473.36569 4280559649
246.51529 -24.223686 -473.54898 4280624415
247.37375 -24.560001 -473.80249 4280296740
248.33667 -24.784445 -473.38782 4280295704
250.27333 -24.973333 -473.48999 4280361247
252.25 -25 -473.10999 4279836701
242.6675 -23.1675 -473.79749 4280954664
243.39548 -23.407001 -473.49902 4280821791
244.50887 -23.691668 -473.54395 4280822307
245.23836 -23.828333 -473.70834 4280953120
246.315 -23.969999 -473.94501 4280756503
240.80499 -22.282501 -473.19 4281282083
241.68358 -22.637144 -473.4957 4281085480
242.36165 -22.85 -473.37671 4281085226
333.17001 -110.44444 -472.81168 4280492319
308.25 -81.25 -472.91 4279835168
288.75 -47.66 -472.5 4279375122
289.61142 -47.365715 -472.4957 4279900693
290.26199 -47.194 -472.52997 4280032535
291.47998 -46.740002 -472.54001 4279965719
292.41998 -46.3675 -472.48749 4280030482
293.09 -46.220001 -472.84 4281874485
293.71002 -45.735001 -472.19501 4280426268
294.60831 -45.386669 -472.52835 4280360215
295.16998 -45.110001 -472.69501 4280231718
295.66211 -44.507145 -472.50214 4280163608
296.13669 -44.166668 -472.87668 4281082388
296.46002 -43.626251 -472.50125 4281017373
296.88 -42.950001 -472.07999 4281213993
297.34048 -42.460499 -472.45044 4281675300
297.6586 -41.714287 -472.45856 4284503354
298.13 -41.259998 -472.98001 4284639830
297.80499 -40.599998 -472.23999 4286676589
298.20667 -40.5 -472.78003 4283980119
297.92999 -39.02 -472.10001 4285226321
298.32999 -39.783333 -472.72 4283319867
297.98999 -38.389999 -472.20999 4284769618
298.36499 -38.370003 -472.72498 4284371278
297.87 -37.540001 -472.17499 4282991673
298.255 -37.235001 -472.78 4284371007
297.70401 -36.538002 -472.26202 4284767049
298.08002 -36.424999 -472.82001 4285751636
297.52713 -35.535713 -472.55853 4286476895
296.65143 -34.46714 -472.34857 4286215793
297.14999 -34.779999 -472.715 4287661167
295.62668 -33.230835 -472.44751 4284506716
296.138 -33.685997 -472.612 4283584845
293.75 -32.057503 -472.70999 4286348146
294.62445 -32.468334 -472.42004 4285755490
295.21558 -32.854446 -472.48557 4285295713
289.98999 -31.120001 -472.89999 4285885276
290.60498 -31.17 -472.72 4286475603
291.42001 -31.276665 -472.64999 4286477671
292.56573 -31.472857 -472.36432 4286018669
293.23999 -31.769999 -472.38 4286675827
283.51999 -30.040001 -472.98999 4287334779
284.72501 -30.17 -472.815 4286936936
285.60333 -30.176666 -472.59 4287333238
286.58502 -30.2875 -472.5925 4286873458
287.49667 -30.423332 -472.41333 4287465856
288.4733 -30.731113 -472.56445 4287531906
289.42749 -30.887499 -472.26498 4286609008
290.29999 -30.939999 -472.14499 4285490512
277.82999 -29.01 -472.76001 4287728761
278.69998 -29.110001 -472.72665 4287662454
279.42999 -29.119999 -472.36499 4287596406
280.22501 -29.33 -472.57501 4288253569
281.75998 -29.51 -472.34668 4287596152
282.62668 -29.636667 -472.37003 4287333239
283.52499 -29.785 -472.40503 4286937964
284.38333 -29.936666 -472.39664 4287004020
285.73001 -30 -472.20999 4287070329
268.75 -28.32 -472.66998 4283189560
269.54999 -28.306 -472.54999 4284701010
270.5 -28.283335 -472.47998 4285621596
271.47 -28.443335 -472.62332 4286214753
272.35001 -28.360001 -472.39999 4286740847
273.755 -28.470001 -472.44501 4287332984
274.51801 -28.610001 -472.63998 4287333495
275.53333 -28.646667 -472.51669 4287596666
276.40002 -28.744999 -472.51501 4287662204
277.34003 -28.869999 -472.53497 4287597436
278.14999 -28.870001 -472.20999 4288122238
279 -28.959999 -472.07001 4287989619
267.75 -27.799999 -472.19501 4283188543
268.44751 -27.8225 -472.17749 4284042822
269.31335 -27.876669 -472.1167 4284635984
250.60501 -25.025002 -472.95999 4280098589
251.03999 -25.030001 -472.91 4280033054
245.65625 -24.107498 -472.71753 4280624671
246.19749 -24.2425 -472.51999 4280623392
248.31999 -24.731667 -472.87332 4280033561
250.48729 -24.737272 -472.62366 4280098328
251.50208 -24.657084 -472.57874 4280098071
252.21402 -24.552 -472.75995 4280033569
243.25 -23.129999 -472.75 4280887576
244.80499 -23.865 -472.46249 4280756257
245.21802 -23.944 -472.40399 4280559385
240.595 -22.159 -472.52899 4281019943
241.27818 -22.275457 -472.55185 4281084959
242.424 -22.604 -472.79999 4281150248
243 -22.950001 -472.75 4281215263
235.65201 -21.222 -472.22803 4281413672
236.28 -21.346251 -472.17752 4281282596
237.64 -21.539999 -472.18002 4281085734
238.44002 -21.468571 -472.18286 4281019428
239.65555 -21.786667 -472.37 4280887840
240.04001 -21.969999 -472.51001 4281019429
332.81668 -119.33334 -471.04333 4281546545
333.41913 -119.23363 -471.11365 4282007361
332.76685 -118.47125 -471.20557 4281414449
333.46552 -118.58849 -471.39655 4281941053
288.51752 -47.677498 -471.35251 4279834642
289.57401 -47.290001 -471.49799 4280032022
290.25 -47.139999 -471.84668 4280031256
290.56714 -46.844288 -471.36282 4279965462
291.5275 -46.417503 -471.44748 4280753182
292.51001 -46.029999 -471.42999 4282143557
293.56143 -45.514282 -471.38004 4280885785
294.27499 -45.190002 -471.66998 4280556564
294.57999 -44.843334 -471.24667 4279967517
295.3967 -44.293335 -471.51834 4280624159
295.85001 -43.771996 -471.28598 4281083941
296.27145 -43.355713 -471.48145 4281083428
296.67279 -42.610001 -471.44775 4281018915
297.10199 -42.296001 -471.84799 4280821789
296.80334 -41.583332 -471.17667 4281413161
297.17334 -41.505001 -471.65503 4282070575
296.95001 -40.959999 -471.12 4281412648
297.34198 -40.517998 -471.52597 4283845704
297.40164 -39.541668 -471.41666 4283911738
297.4075 -38.424999 -471.435 4284766803
297.306 -37.432999 -471.465 4283517761
296.83667 -36.369999 -471.17001 4285160274
297.23602 -36.571999 -471.63199 4284831810
296.66333 -35.514999 -471.36499 4287002473
297.14001 -35.685001 -471.875 4286608740
295.81003 -34.223331 -471.24002 4286937970
296.29401 -34.57 -471.65802 4287134830
295.43375 -33.39875 -471.61249 4283914835
293.90503 -32.029999 -471.54999 4285821034
294.47522 -32.437599 -471.46918 4285163361
295.13 -32.950001 -471.72 4283980886
291.63 -31.030001 -471.71997 4285952106
292.57748 -31.30125 -471.52811 4286347890
293.38065 -31.705999 -471.57666 4286084971
287.50668 -30.185556 -471.51111 4288057221
288.50751 -30.595001 -471.6575 4288123527
289.41833 -30.734999 -471.56665 4287070068
290.52802 -30.806 -471.414 4285556834
291.34799 -30.908001 -471.21802 4286083179
280.69 -29.200001 -471.89999 4287268731
281.59335 -29.220001 -471.66333 4287267190
282.32599 -29.243999 -471.52997 4287200628
283.51001 -29.442501 -471.57501 4287005045
284.48666 -29.613333 -471.63 4287070064
285.46002 -29.725 -471.6825 4286873458
286.39502 -29.827499 -471.57501 4287399037
287.22501 -29.965 -471.255 4287860351
273.66 -28.099998 -471.77002 4287268737
274.54999 -28.205 -471.815 4287860096
275.32501 -28.185001 -471.55499 4287793273
276.20001 -28.309999 -471.51999 4287596918
277.38 -28.523333 -471.46997 4287990140
278.55832 -28.754999 -471.55835 4287989881
279.44003 -28.873331 -471.49332 4287662197
280.62 -28.93 -471.20001 4287004268
265.25 -27.01 -471.25 4283913287
267.34833 -27.254999 -471.595 4284307535
268.52249 -27.297499 -471.47498 4284637268
269.58167 -27.568335 -471.68997 4285424726
270.31198 -27.554001 -471.534 4286018661
271.47336 -27.616667 -471.37332 4287069046
272.67999 -27.950001 -471.67001 4286610545
273.58334 -27.786667 -471.20667 4287596157
274.58502 -27.955 -471.28998 4287596152
265.75833 -26.739998 -471.16 4284439122
266.37668 -26.778334 -471.21497 4284504913
267.51999 -26.889999 -471.03 4285492324
268.10999 -26.969999 -471.04001 4285162073
240.69498 -22.169373 -471.65002 4280757025
241.15727 -22.278181 -471.52002 4280625695
235.74001 -21.040001 -471.95999 4281479205
236.51251 -21.134998 -471.73749 4281150756
237.64999 -21.301426 -471.64999 4281281575
238.58818 -21.345457 -471.5264 4281346849
239.53668 -21.640001 -471.46448 4281019428
240.3 -21.901999 -471.194 4281084198
234.53401 -20.521999 -471.15802 4281809714
235.52116 -20.669411 -471.46466 4281282341
236.20285 -20.871429 -471.43716 4281281829
237.07001 -20.98 -471.03 4281083414
332.92499 -121.05 -470.095 4281479987
332.62735 -120.4137 -470.4429 4281478958
333.45566 -120.51633 -470.52032 4282072378
332.4213 -119.48087 -470.52432 4281282607
333.48834 -119.77667 -470.91501 4282597954
285.87 -48.235001 -470.16 4279506191
286.23999 -48.150002 -470.26001 4279506447
286.75 -47.950001 -470.25 4280227093
287.44998 -47.708332 -470.3967 4279705115
288.5575 -47.3325 -470.48502 4280359700
289.45001 -47.084999 -470.655 4279836187
289.78998 -46.91 -470.51001 4280229405
290.45502 -46.595001 -470.45502 4281809956
291.14999 -46.330002 -470.67001 4281481766
291.73999 -45.939999 -470.29999 4280823875
292.534 -45.745998 -470.59198 4281876020
293.56335 -45.232224 -470.45779 4280428836
294.04999 -45.110001 -470.98999 4280754975
293.82999 -44.990002 -470.12 4279576863
294.4675 -44.569374 -470.31689 4280230171
295.20334 -44.123337 -470.75 4280297509
294.95999 -43.939999 -470.10999 4280953128
295.51898 -43.616001 -470.60898 4281085994
296.07999 -43.060001 -470.94 4281543462
295.56 -42.68 -470.04999 4281415217
296.03 -42.630001 -470.64001 4281083943
296.45142 -41.491428 -470.62717 4281545518
296.64142 -40.357143 -470.46286 4281413155
297.04001 -40.279999 -470.98999 4281676073
296.69 -39.565998 -470.46802 4282990387
296.6467 -38.600002 -470.42334 4284635466
297.04999 -38.110001 -470.98001 4284241228
296.47665 -37.608334 -470.31497 4284438346
296.25668 -36.326664 -470.42334 4284702292
295.74667 -35.256668 -470.29666 4285097051
296.11334 -35.539997 -470.64001 4285295202
295.43875 -34.412502 -470.47626 4286280293
294.72998 -33.396671 -470.3483 4285952101
295.29666 -33.810001 -470.82666 4286280550
293.76669 -32.223331 -470.39502 4284966240
294.2825 -32.592503 -470.59079 4285031519
291.89001 -31.033335 -470.32999 4286282615
292.41333 -31.277222 -470.60336 4286215533
293.30167 -31.813334 -470.59 4285492576
287.98999 -30.190001 -470.82999 4287728249
288.64716 -30.195713 -470.36572 4287135343
289.45859 -30.338572 -470.35571 4287005043
290.65598 -30.636002 -470.49503 4286478958
291.5307 -30.887859 -470.58359 4286544755
283.57333 -29.139999 -470.84 4287004791
284.73999 -29.184999 -470.67999 4286741357
285.43668 -29.190001 -470.38669 4287267448
286.67001 -29.5175 -470.39252 4287005558
287.36667 -29.738335 -470.39999 4287135341
288.04001 -29.959999 -470.26999 4287200365
276.745 -28.110001 -470.64001 4287861118
277.89999 -28.34 -470.60999 4288058508
278.39999 -28.266668 -470.19666 4287661430
279.48331 -28.413332 -470.28665 4286806119
280.45999 -28.523333 -470.36667 4287133286
281.30667 -28.653334 -470.4733 4287332206
282.50751 -28.865 -470.59 4287464570
283.45667 -28.93 -470.42996 4287070837
284.39252 -28.9175 -470.20251 4286610799
270.40997 -27.02 -470.75 4286609516
271.98001 -27.18 -470.60001 4287136631
272.65332 -27.256668 -470.54666 4287268735
273.45001 -27.307499 -470.39499 4287334266
274.57501 -27.665001 -470.67999 4287596667
275.55499 -27.77 -470.46002 4287991172
276.09 -27.84 -470.31 4287793789
264.75 -26.269999 -470.48331 4283189827
265.41727 -26.443636 -470.72452 4283320896
266.45001 -26.373999 -470.60602 4285557088
267.505 -26.3375 -470.375 4286412395
268.58002 -26.506668 -470.42001 4286477937
269.53665 -26.67 -470.46335 4286018670
270.30667 -26.583334 -470.19003 4286412913
271.23999 -26.889999 -470.35999 4287136113
272.32999 -26.889999 -470.06 4287268221
263.53 -25.862499 -470.13751 4283322179
264.51663 -25.886667 -470.12332 4284767065
265.45502 -25.83 -470.04999 4286083428
241.25 -22.18 -470.76001 4281083422
237.73999 -21.029999 -470.90002 4281084967
238.68666 -21.143333 -470.61337 4280690981
239.45363 -21.284544 -470.49817 4280821790
240.39833 -21.796667 -470.84 4281281061
231.46875 -20.3475 -470.18127 4281677098
232.39375 -20.484999 -470.14874 4281611313
233.51454 -20.559999 -470.4382 4281414190
234.494 -20.439999 -470.53867 4281479467
235.55539 -20.406923 -470.54846 4281216292
236.49438 -20.625002 -470.48499 4281085478
237.44221 -20.803335 -470.42664 4281150241
238.496 -20.92 -470.12402 4280953123
331.78 -122.14333 -469.02335 4281217071
332.55298 -122.46301 -469.18048 4281545262
331.68179 -121.5491 -469.15997 4281151023
284.82001 -48.232857 -469.38715 4279767824
285.33167 -48.196667 -469.59998 4279637267
285.85999 -47.91 -469.23999 4279244302
286.55002 -47.735001 -469.52499 4279769105
287.41 -47.375 -469.42999 4279704335
288.38 -47.105 -469.63501 4279834901
288.65503 -46.895 -469.23999 4280162325
289.642 -46.588001 -469.47598 4280032029
290.435 -46.2575 -469.51752 4280821542
291.17999 -46.080002 -469.98999 4280889896
290.70999 -45.91 -469.07001 4280424982
291.33334 -45.753338 -469.36331 4279836443
292.43286 -45.299999 -469.32144 4279835155
293.29001 -45.119999 -469.66498 4280295186
292.95999 -44.970001 -469.04001 4280558100
293.62003 -44.781425 -469.34714 4281085996
294.28568 -44.373573 -469.66861 4280823074
294.63168 -43.673336 -469.44998 4281083935
295.04001 -43.25 -469.69 4281478925
294.81 -42.950001 -469.14999 4284897603
295.39001 -42.373333 -469.64999 4284700492
295.45334 -41.506664 -469.33667 4286611313
295.72751 -40.435001 -469.25 4284903531
296.14334 -40.501667 -469.80164 4282468165
295.77002 -39.75 -469.24832 4283322707
296.146 -39.728001 -469.73798 4281875255
295.56 -38.560001 -469.14001 4282792492
296.065 -38.360001 -469.715 4284369968
295.71249 -37.505001 -469.42999 4284897611
296.06 -37.560001 -469.79999 4284963152
295.61667 -36.41 -469.62 4284702805
294.85999 -35.169998 -469.23001 4284967264
295.31201 -35.482002 -469.62997 4284638301
294.65671 -34.393333 -469.41501 4284834397
295.16 -34.715 -469.84003 4285030492
293.93335 -33.243332 -469.21667 4286215273
294.29501 -33.51125 -469.54623 4286214243
292.76001 -32.139999 -469.04001 4284966240
293.43909 -32.48 -469.40457 4285229663
294.10999 -32.849998 -469.88501 4285426525
291.80667 -31.166666 -469.57999 4285755753
292.48199 -31.632 -469.63397 4285558370
288.87 -30.01 -469.85001 4286611569
289.69571 -30.11714 -469.64212 4286808179
290.48578 -30.400604 -469.46036 4286281839
291.30371 -30.85125 -469.60126 4285952616
285.58145 -29.107141 -469.63998 4287267964
286.48001 -29.322222 -469.54666 4287201655
287.42398 -29.522999 -469.59198 4286345829
288.57001 -29.792501 -469.46249 4286872692
289.41498 -29.932499 -469.2475 4286873463
278.62997 -28.050001 -469.62668 4287266679
279.41 -28.110001 -469.64999 4286738530
280.58798 -28.170002 -469.604 4287332722
281.46249 -28.2225 -469.45001 4287661693
282.41501 -28.395 -469.52252 4287201654
283.5025 -28.560001 -469.58502 4286938739
284.60501 -28.766668 -469.5817 4287333753
285.11667 -28.943335 -469.6167 4287333243
274.57001 -27.27 -469.79999 4287071870
275.48999 -27.342001 -469.38004 4287532419
276.47 -27.620001 -469.51001 4287859330
277.59335 -27.846666 -469.49332 4287531646
278.53 -27.833334 -469.17667 4286806897
280.70001 -27.93 -469.01999 4287531641
269.64999 -26.02 -469.63 4286415226
270.62668 -26.226667 -469.62 4286874230
271.51999 -26.4 -469.55499 4287464830
272.49667 -26.6 -469.53003 4286939515
273.34 -26.75 -469.38 4287137149
274.45999 -27 -469.20999 4287861386
263.42001 -25.25 -469.57999 4285031517
264.46835 -25.338335 -469.61166 4285754470
265.55002 -25.316666 -469.53665 4286412905
266.43802 -25.420002 -469.51602 4286610544
267.41 -25.502499 -469.46997 4286545522
268.534 -25.710001 -469.5 4287071350
269.32001 -25.59 -469.14999 4287465592
270.34668 -25.870001 -469.20667 4286808951
263.5325 -24.797501 -469.19 4285689959
264.27499 -24.869999 -469.185 4285952617
265.13 -24.9 -469.16 4286542439
266.54001 -24.959999 -469.01999 4286348399
238.75 -21.02 -469.23001 4280559641
230.75999 -20.1 -469.76999 4280755741
231.58333 -20.133333 -469.81332 4281742127
232.48286 -20.198574 -469.71429 4281676846
233.315 -20.215 -469.755 4281676333
234.56999 -20.125 -469.565 4281282346
235.47499 -20.203749 -469.40375 4281282086
236.52777 -20.40889 -469.57996 4281084963
237.57997 -20.671579 -469.58157 4281215261
238.47 -20.862669 -469.59064 4280625699
229.75 -19.91 -469.25 4282928192
230.54333 -19.799999 -469.17001 4281413670
231.235 -19.795 -469.185 4281938990
232.27 -19.924999 -469.23001 4281545768
233.51836 -19.871668 -469.17166 4281348646
234.61333 -19.956667 -469.17001 4281479207
331.48672 -122.63757 -468.56357 4281283121
331.10199 -121.626 -468.94598 4281085739
328.26462 -114.50642 -468.54172 4280361761
328.07251 -113.9125 -468.62 4280295709
318.3222 -103.71111 -468.22168 4279308558
282.5 -48.639999 -468.245 4279310098
283.6825 -48.419998 -468.39001 4279702290
284.44501 -48.2075 -468.655 4279440146
285.535 -47.830002 -468.565 4279702804
286.61002 -47.392502 -468.3725 4279899665
287.48334 -47.143337 -468.56335 4280296733
287.85001 -46.93 -468.26001 4280098339
288.45001 -46.77 -468.57001 4279770142
289.45001 -46.297497 -468.56 4280426781
289.85001 -45.98 -468.32999 4279968793
290.5975 -45.607502 -468.42499 4279966997
291.47501 -45.162498 -468.39999 4279638295
292.29999 -45.095001 -468.845 4279703319
291.83002 -44.889999 -468.27502 4279770392
292.55814 -44.627499 -468.42059 4280688921
293.30463 -44.491539 -468.74615 4280558365
292.76999 -43.950001 -468.01001 4282002205
293.64301 -43.546001 -468.27701 4284175425
294.216 -43.349998 -468.67596 4284505154
293.85001 -42.990002 -468.01001 4284906098
294.39667 -42.631664 -468.38663 4285099895
294.6275 -41.637501 -468.2475 4285628810
295.01752 -41.487499 -468.76251 4286216563
294.76001 -40.646667 -468.23666 4286087292
295.31876 -40.427502 -468.80249 4286743426
294.80499 -39.434998 -468.285 4284638553
295.38251 -39.645 -468.83499 4284506206
294.65002 -38.459999 -468.28998 4283780936
295.10001 -38.490002 -468.69 4282336577
294.625 -37.302502 -468.41501 4286149744
295.31 -37.82 -468.97 4284369978
294.46335 -36.369999 -468.42334 4286678658
294.35001 -35.484997 -468.565 4286151541
293.71335 -34.41 -468.34 4286216817
294.22998 -34.705002 -468.73999 4286020721
292.88 -33.174999 -468.16501 4287794817
293.44168 -33.341667 -468.58835 4287269245
294.01999 -33.84 -468.94 4285952871
292.61444 -32.541111 -468.42224 4287794817
293.1467 -32.758335 -468.70337 4287925377
291.51199 -31.422001 -468.57803 4285491043
292.28 -31.940001 -468.76001 4284442206
289.77142 -30.138571 -468.50143 4286676343
290.3107 -30.456425 -468.65143 4286017644
285.91498 -29.084999 -468.79498 4288187254
286.625 -29.200001 -468.65247 4287859077
287.52429 -29.284286 -468.35284 4286083948
288.63821 -29.591175 -468.36591 4286807155
289.25275 -29.859089 -468.49725 4287004533
281.39001 -28.01 -468.94 4287531653
282.47668 -28.106667 -468.72998 4286938995
283.33002 -28.235001 -468.67999 4287726208
284.4375 -28.5175 -468.66751 4287266936
285.54199 -28.833002 -468.40997 4287791986
286.03 -28.91 -468.23001 4288252537
275.48999 -27.049999 -468.67999 4287862409
276.54333 -27.183332 -468.48666 4287794570
277.65668 -27.396667 -468.48331 4287333499
278.51501 -27.505001 -468.47498 4286937452
279.5275 -27.6525 -468.64252 4287200881
280.54752 -27.7575 -468.62 4287531131
281.47751 -27.83 -468.42999 4287399033
282.76001 -27.969999 -468.17999 4287398775
272.5025 -26.195 -468.595 4287925890
273.51001 -26.463333 -468.56665 4288253828
274.38998 -26.65 -468.41 4288320904
275.22336 -26.803335 -468.29001 4287927172
267.75 -25.09 -468.935 4286677368
268.47 -25.219999 -468.91 4286940534
269.51285 -25.304287 -468.66998 4287202681
270.36377 -25.422499 -468.46497 4287729023
271.42001 -25.716667 -468.30002 4288057736
262.58334 -24.120001 -468.78665 4285294425
263.642 -24.25 -468.75201 4285821545
264.5 -24.355999 -468.73199 4285361766
265.61334 -24.334999 -468.505 4285164135
266.45428 -24.552856 -468.56714 4285887335
267.435 -24.7075 -468.52753 4286610548
268.215 -24.735001 -468.28998 4286742392
269.35501 -24.91 -468.08002 4287071602
261.75 -23.349998 -468.14001 4282924340
262.44498 -23.588333 -468.28333 4285556309
263.50201 -23.764 -468.30402 4285623907
264.44 -23.889999 -468.285 4285821291
235.73 -20.102501 -468.63 4281346855
236.36 -20.313635 -468.45001 4280887585
237.44502 -20.585712 -468.54642 4280821534
229.57637 -19.588182 -468.61542 4282729793
230.45999 -19.47143 -468.49286 4283322184
231.69666 -19.473333 -468.32666 4281807922
232.50587 -19.584707 -468.50058 4281479467
233.57452 -19.602728 -468.52179 4281282600
234.54555 -19.766109 -468.4689 4281281572
235.245 -19.91 -468.42874 4281281316
280.76501 -48.75 -467.23499 4279833365
281.35199 -48.68 -467.552 4279571475
282.3425 -48.520004 -467.5675 4279702807
283.40201 -48.248001 -467.53598 4279768597
284.06 -48.110001 -467.78 4279506193
284.56003 -47.883331 -467.42334 4279637008
285.55002 -47.553333 -467.67334 4279834389
286.55597 -47.159996 -467.52597 4279638030
287.35999 -47.049999 -468 4279900697
287.41251 -46.8125 -467.38 4279900434
288.41251 -46.43 -467.4975 4280493336
289.09 -46.119999 -467.57001 4279767830
289.51501 -45.759998 -467.42252 4280227861
290.42999 -45.197498 -467.495 4280229147
290.75668 -44.756664 -467.18668 4279507733
291.46332 -44.509998 -467.60999 4280819991
291.595 -43.775002 -467.08499 4280362521
292.45334 -43.596664 -467.57333 4283712039
293.29333 -43.289997 -467.85999 4285295460
292.75 -42.799999 -467.25 4285363835
293.48856 -42.55357 -467.54218 4285167738
294.07666 -42.263332 -467.75 4283980892
293.60727 -41.561825 -467.33005 4287467918
294.19888 -41.443333 -467.72668 4285495939
293.60001 -40.566669 -467.23331 4288194224
294.2525 -40.642502 -467.73499 4286285455
293.836 -39.384003 -467.444 4285360739
294.28336 -39.256664 -467.83334 4286479726
293.70248 -38.575001 -467.4425 4285620565
294.1575 -38.755001 -467.80499 4285424731
293.55331 -37.360001 -467.47336 4284041788
294.04001 -37.830002 -467.85001 4282662965
293.52625 -36.641251 -467.48624 4287068008
292.82999 -35.060001 -467.17001 4285625966
293.505 -35.5075 -467.71002 4286282354
292.61002 -34.212502 -467.36749 4286741612
293.13 -34.384998 -467.77502 4286083940
291.94 -33.709999 -467.01999 4286675316
292.45798 -33.459003 -467.65601 4287794564
291.58099 -32.556999 -467.40802 4286543468
292.22 -32.779999 -467.88 4286871406
290.73749 -31.4475 -467.4675 4285491810
291.25 -31.74 -467.745 4286083948
288.98999 -30.09 -467.28 4286544493
289.60626 -30.401249 -467.60126 4286281063
290.06 -30.74 -467.62 4285689698
287.64532 -29.199999 -467.59662 4286938997
288.44855 -29.607855 -467.55426 4286873974
289.13 -30 -467.66 4286478441
283.70001 -28.01 -467.39001 4286937192
284.57498 -28.235001 -467.41003 4286740585
285.5618 -28.509998 -467.54639 4287397489
286.41425 -28.766842 -467.53476 4287596411
287.10001 -28.966667 -467.40332 4286807151
277.31 -27.01 -467.76001 4287792251
278.64667 -27.160002 -467.66 4287265387
279.66 -27.205 -467.47501 4287400059
280.47 -27.356667 -467.58334 4287596412
281.41 -27.505001 -467.57501 4287005556
282.36002 -27.665001 -467.41751 4287135088
283.07001 -27.91 -467.73999 4287464828
272.79001 -26.01 -467.92001 4288386690
273.84 -26.200001 -467.76999 4288450953
274.5 -26.266001 -467.57599 4287203454
275.47998 -26.498001 -467.51602 4287006072
276.45251 -26.715 -467.44 4287203452
277.57999 -26.869999 -467.28998 4286805600
278.35999 -26.99 -467.32001 4287002984
270.59143 -25.16 -467.64429 4288386954
271.50751 -25.440001 -467.53751 4288518537
272.39999 -25.745001 -467.59 4288387212
273.57333 -25.926666 -467.35999 4287794560
274.10999 -25.969999 -467.22 4287399804
266.51999 -24.08 -467.89001 4285625449
267.50751 -24.195 -467.65002 4286677117
268.52664 -24.360001 -467.37 4287202941
269.58002 -24.834999 -467.75 4287466881
270.01001 -24.889999 -467.48001 4288454026
261.76999 -23.040001 -467.79999 4280755741
262.5275 -23.177498 -467.815 4285688675
263.57001 -23.29143 -467.69711 4285821031
264.44666 -23.378889 -467.49777 4286873203
265.32498 -23.682499 -467.67001 4286478956
266.35001 -23.780001 -467.38 4287069555
267.07999 -23.9 -467.25 4286612347
257.75 -22.346666 -467.44669 4282333999
258.52774 -22.495554 -467.47998 4282860087
259.35666 -22.503332 -467.36667 4282597175
260.64999 -22.426666 -467.17001 4285164130
261.55252 -22.797501 -467.52249 4284439123
262.27399 -22.828001 -467.392 4285755499
263.41998 -22.92 -467.10999 4286348147
235.72874 -20.140001 -467.50375 4280821531
236.17624 -20.3125 -467.52374 4281017889
222.60417 -19.273333 -467.30502 4281413670
223.48766 -19.336472 -467.44354 4281480235
224.45708 -19.308823 -467.42764 4281873708
225.25 -19.290001 -467.69501 4282138689
226.75 -19.139999 -467.25 4282994497
227.65401 -19.280001 -467.35199 4281348393
228.52272 -19.355455 -467.45819 4281611565
229.35715 -19.245714 -467.49429 4282729531
230.46201 -19.174 -467.64801 4282533187
231.40999 -19.156668 -467.40665 4281611055
232.38113 -19.32111 -467.52777 4281151273
233.48167 -19.495001 -467.60669 4281084707
234.5625 -19.769167 -467.58914 4281084193
235.12601 -19.926001 -467.46002 4281149216
225.25 -18.845001 -467.13 4282398763
229.94 -18.969999 -467.04001 4281743152
230.34 -18.93 -467.03 4281545518
186.79573 39.225716 -467.53424 4280295194
278.595 -49.184998 -466.25 4280096532
279.25 -49.110001 -466.75 4279704093
279.64001 -48.935001 -466.41501 4279637779
280.38431 -48.734287 -466.45859 4279572496
281.41333 -48.539997 -466.51334 4279702290
282.54001 -48.23 -466.41666 4279703316
283.29001 -48.130001 -466.95001 4280162071
283.67999 -47.959999 -466.60001 4279637524
284.556 -47.559998 -466.31601 4279834130
285.34796 -47.256001 -466.54199 4279965716
285.72 -46.98 -466.29999 4279573779
286.51001 -46.776669 -466.54333 4279965712
287.46402 -46.332001 -466.35995 4280623897
288.07999 -46.220001 -466.66 4281743146
288.67401 -45.749996 -466.42999 4281280550
289.33249 -45.387501 -466.5625 4281083937
289.685 -44.860001 -466.19501 4280558625
290.51703 -44.445999 -466.63297 4280492313
290.73499 -43.815002 -466.245 4280755228
291.34998 -43.540001 -466.67999 4280755999
291.63599 -42.509998 -466.24399 4286412108
292.32333 -42.540001 -466.83334 4286348897
291.89999 -41.939999 -466.22 4290886324
292.39859 -41.59 -466.52426 4290362796
292.59 -40.400002 -466.39749 4289768856
293.29001 -40.060001 -466.98001 4286282349
292.56802 -39.601997 -466.34198 4288060554
293.14001 -39.310001 -466.88501 4286215016
292.63 -38.349998 -466.45001 4285226324
292.57001 -37.43 -466.45288 4284173106
293.01999 -37.419998 -466.97 4281744173
292.56198 -36.566002 -466.47202 4288910179
291.85999 -35.240002 -466.03 4286877330
292.41144 -35.598572 -466.50711 4287866269
291.73999 -34.509998 -466.28665 4286347894
292.18335 -34.530003 -466.76663 4285822834
290.89999 -33.23 -466.14001 4286086775
291.51001 -33.5425 -466.6525 4285952623
290.65399 -32.396 -466.43399 4286741102
291.07999 -32.639999 -466.76001 4285557601
289.69 -31.262501 -466.39502 4286083686
290.39999 -31.629999 -466.8075 4287136116
288.73199 -30.268 -466.59399 4286281576
289.29001 -30.697498 -466.6525 4285820003
286.76501 -29.105 -466.12 4286674794
287.56845 -29.39846 -466.6077 4286937710
288.22998 -29.755001 -466.81 4286675822
284.64429 -28.148573 -466.46713 4286277466
285.48288 -28.368334 -466.54871 4286146907
286.44666 -28.761112 -466.60776 4286542440
287.10001 -29 -466.92001 4286346859
281.57001 -27.255001 -466.69 4286937967
282.50601 -27.436001 -466.34 4286936934
283.56003 -27.865 -466.48831 4287003501
275.49332 -26.093332 -466.45667 4286344556
276.35001 -26.363333 -466.44666 4287267189
277.60999 -26.674999 -466.64502 4286675308
278.5 -26.717501 -466.41998 4287333238
279.39502 -26.93 -466.755 4287333495
280.54999 -26.950001 -466.29001 4287660911
271.59 -25.139999 -466.745 4288256390
272.35001 -25.24 -466.53 4287401341
273.48749 -25.537498 -466.58252 4286677367
274.685 -25.754999 -466.29001 4285033831
275.10999 -25.879999 -466.26001 4285688683
268.60199 -24.134001 -466.53204 4288385927
269.29501 -24.4 -466.59 4288715918
270.50998 -24.764999 -466.56 4288912266
271.46503 -24.9 -466.22501 4287400576
264.89999 -23.139999 -466.82001 4286414191
265.79001 -23.310001 -466.66498 4286546043
266.47998 -23.436668 -466.47668 4286480503
267.60501 -23.825001 -466.63 4287006075
258.52002 -22.040001 -466.95001 4284505433
260.30499 -22.145 -466.82001 4285754731
261.29001 -22.24 -466.73999 4286019944
262.52664 -22.406668 -466.54333 4286348917
263.55667 -22.519999 -466.25333 4286152052
264.38998 -22.82 -466.40753 4286479731
265.31 -22.940001 -466.07999 4286742650
254.75 -21.030001 -466.25 4284241492
255.625 -21.262501 -466.41251 4284307796
256.47 -21.389999 -466.4675 4284374618
257.5575 -21.654999 -466.6525 4284308310
258.42749 -21.5875 -466.3775 4285033060
259.57001 -21.815001 -466.48499 4285558635
260.55499 -21.799999 -466.20999 4286216044
261.45502 -21.974998 -466.17999 4286283122
254.25 -20.959999 -466.25 4284044623
222.89 -19.09 -466.95999 4281808176
223.48999 -19.073334 -466.89664 4281545774
224.10001 -19.049999 -466.88 4282005039
227.89 -19.030001 -466.81 4281545772
228.55666 -19.073332 -466.78 4281611053
229.09 -19.110001 -466.91 4281217066
231.7 -19.040001 -466.89001 4281282347
232.68532 -19.276669 -466.38068 4281018400
233.48801 -19.518667 -466.45932 4280887073
234.44362 -19.7584 -466.4816 4280886302
235.17999 -19.780001 -466.62128 4280755488
222.55435 -18.6 -466.41565 4281873194
223.49333 -18.764999 -466.4733 4281808433
224.59442 -18.576111 -466.44 4281808433
225.36064 -18.373747 -466.38684 4282465590
226.47252 -18.637499 -466.42252 4282071604
227.37199 -18.834 -466.45801 4281939761
228.57335 -18.789999 -466.25 4281478951
229.56375 -18.73 -466.35373 4281347878
230.52928 -18.673571 -466.49429 4281413673
231.38937 -18.808748 -466.47693 4281347364
185.7975 37.552502 -466.1825 4280097037
316.62457 -108.56625 -465.32748 4280229653
316.57303 -107.5695 -465.71149 4280229658
317.26306 -107.68384 -465.80307 4279967251
276.75 -49.610001 -465.25 4279769366
277.50668 -49.296665 -465.30997 4279901202
278.29602 -49.153999 -465.642 4279769625
278.89001 -48.900002 -465.14999 4279835154
279.38998 -48.843334 -465.51001 4280031255
280.30753 -48.630001 -465.53 4279770141
281.63 -48.285 -465.45001 4279571726
282.41998 -48.059998 -465.505 4279637270
282.79001 -47.91 -465.29999 4279571737
283.53998 -47.752499 -465.655 4279571728
284.75003 -47.173336 -465.57999 4279899668
285.68002 -46.696667 -465.48331 4279638040
286.47751 -46.404999 -465.6275 4279900175
287.23999 -46.110001 -465.66498 4280361237
287.45502 -45.82 -465.345 4281347106
288.42334 -45.416668 -465.64331 4280886814
288.54999 -44.959999 -465.09 4280886034
289.3967 -44.630001 -465.57004 4280426520
289.88 -43.720001 -465.11499 4280886044
290.418 -43.625999 -465.67398 4280558613
290.64334 -42.533333 -465.24667 4281741860
291.21002 -42.330002 -465.755 4282729523
290.88 -41.474998 -465.07999 4282268728
291.38202 -41.566002 -465.61002 4285558874
291.46857 -40.597145 -465.38858 4285950304
292.04001 -40.630001 -465.92001 4293519328
291.77002 -39.464996 -465.48752 4285292636
292.01001 -39.950001 -465.78 4288514153
291.70001 -38.509998 -465.40601 4283057466
292.20999 -38.830002 -465.98001 4285232758
291.58798 -37.473999 -465.30801 4285686346
291.62332 -36.25333 -465.45667 4290554262
291.49799 -35.346001 -465.59399 4287403931
290.70001 -34.5075 -465.18002 4287400835
291.285 -34.48 -465.79999 4286283899
290.47 -33.544998 -465.48001 4288913308
289.80331 -32.616669 -465.37332 4286676858
290.29999 -32.990002 -465.64001 4288321941
288.72501 -31.255001 -465.38501 4286083426
289.42749 -31.674999 -465.6925 4285755492
287.69669 -30.236666 -465.40665 4286149992
288.4733 -30.796667 -465.59668 4286214495
286.43832 -29.263334 -465.40665 4286412133
287.27499 -29.695 -465.65997 4286675053
284.63931 -28.224667 -465.48135 4286540381
285.46109 -28.555555 -465.69336 4286279779
286.25 -28.879999 -465.94 4286345824
281.79666 -27.063334 -465.48331 4286476648
282.32999 -27.270002 -465.67334 4286609510
283.41666 -27.723333 -465.43167 4286278741
276.52667 -26.190001 -465.56003 4287463792
277.51001 -26.41 -465.73999 4286809211
278.23999 -26.4 -465.31 4287399286
279.45999 -26.596666 -465.50668 4287661433
280.70001 -26.775 -465.47 4287004017
281.29501 -26.860001 -465.20502 4286542954
272.60001 -25.040001 -465.87 4286218362
273.54333 -25.226667 -465.58667 4286019956
274.44751 -25.475 -465.40253 4286282871
275.29752 -25.795 -465.57498 4286742128
269.49332 -24.163332 -465.65332 4288386183
270.45251 -24.334999 -465.45749 4286743160
271.29749 -24.547501 -465.41751 4286347891
272.36667 -24.843332 -465.39001 4286545013
266.55667 -23.220001 -465.56998 4287202944
267.51501 -23.465 -465.38 4287860104
268.51001 -23.803335 -465.51334 4288255367
262.66 -22.08 -465.73499 4286085493
263.44373 -22.239376 -465.50003 4285757557
264.46002 -22.557501 -465.5625 4285889401
265.39624 -22.832502 -465.48126 4286545785
257.53 -21.1 -465.82001 4285362278
258.47498 -21.07 -465.505 4285624939
259.50601 -21.294001 -465.56802 4285887344
260.58499 -21.491667 -465.47668 4286086002
261.423 -21.645 -465.34302 4286479737
262.4075 -21.896252 -465.31375 4286020985
251.66202 -20.206001 -465.702 4283189577
252.50667 -20.269999 -465.64331 4284241749
253.56601 -20.296 -465.48798 4284966239
254.422 -20.563999 -465.69199 4285098341
255.38998 -20.569998 -465.47598 4285427306
256.41998 -20.672501 -465.35999 4285887598
257.35001 -20.76 -465.22998 4285559664
258.315 -20.875 -465.11499 4285690994
232.75 -19.121429 -465.82144 4281083159
233.38937 -19.27 -465.73376 4280558364
234.125 -19.560001 -465.75 4280558104
250.5 -19.654999 -465.25 4283848533
251.4025 -19.762501 -465.24249 4283980120
253.22 -19.91 -465.04001 4285559149
220.75 -18.17 -465.23999 4280755741
221.5 -18.110001 -465.255 4282268469
222.4375 -18.25 -465.85501 4282071079
223.515 -18.208334 -465.81168 4281874225
224.39749 -18.105 -465.79001 4282070577
225.6575 -18.08375 -465.77747 4282268471
226.62166 -18.277498 -465.56168 4281546030
227.47333 -18.438889 -465.48221 4281546030
228.55899 -18.392002 -465.375 4281281827
229.47626 -18.411251 -465.40875 4280953374
230.5175 -18.459167 -465.42419 4280887074
231.53273 -18.719999 -465.61905 4280755998
232.42143 -18.894285 -465.36572 4280296734
222.42 -17.867498 -465.20001 4282399795
223.53767 -17.812307 -465.31384 4281611820
224.66875 -17.79875 -465.36749 4281611051
225.39886 -17.849998 -465.30887 4281676588
226.23 -17.99 -465.17001 4281610802
191.75999 29.75 -465.76999 4280821279
275.78799 -49.767998 -464.54199 4280097046
276.45166 -49.548328 -464.45834 4280097818
277.38 -49.18 -464.57251 4280032533
277.95999 -48.900002 -464.13 4280359704
278.51999 -48.845001 -464.43167 4280163097
279.44 -48.674999 -464.535 4280359702
280.60251 -48.3825 -464.51501 4279703317
281.47998 -48.163334 -464.74332 4279571730
281.69 -47.959999 -464.23999 4279702800
282.75668 -47.676666 -464.53336 4279571729
283.54425 -47.331425 -464.48999 4279571985
284.16498 -47.154999 -464.81 4279572498
284.53 -46.799999 -464.32001 4279637776
285.39752 -46.520004 -464.64502 4279967257
286.13998 -46.14333 -464.62332 4280559130
286.5 -45.726665 -464.23666 4282070562
287.61667 -45.206665 -464.53336 4280889377
287.95001 -44.73 -464.23001 4280756003
288.43399 -44.554005 -464.47202 4280888100
288.84 -43.73 -464.01001 4281282860
289.39664 -43.531666 -464.42667 4280953633
290.14999 -43.169998 -464.98999 4281018408
289.77664 -42.570004 -464.23666 4281545260
290.22501 -42.5 -464.715 4281808175
290.38199 -41.448002 -464.48798 4283254843
290.59222 -40.545551 -464.43555 4284373328
291.07001 -40.23 -464.85999 4283978823
290.70999 -39.557499 -464.31 4283651148
291.14999 -39.360001 -464.785 4283254851
290.82999 -38.490002 -464.39001 4285094209
291.26001 -38.43 -464.85999 4284703303
290.72501 -37.625 -464.36499 4287462753
291.09 -37.666668 -464.73666 4286410327
290.51999 -36.433331 -464.33334 4289768585
291.07999 -36.674999 -464.83499 4289103204
289.75 -35.060001 -464.01999 4286743675
290.67499 -35.675003 -464.65997 4289973432
290.12 -34.385002 -464.67499 4288057734
288.91 -33.16 -464.20999 4290428080
289.496 -33.584 -464.50601 4289968309
288.5625 -32.462502 -464.31 4288784799
289.16248 -32.650002 -464.73749 4287007111
287.51001 -31.375 -464.20499 4287137663
288.35001 -31.496666 -464.82666 4285886052
286.62997 -30.313334 -464.29666 4287267690
287.38751 -30.630001 -464.7175 4286411878
285.60001 -29.353334 -464.28665 4286411883
286.27249 -29.630001 -464.66501 4286937449
283.89249 -28.07 -464.41 4285949015
284.53 -28.436472 -464.51706 4286212703
285.38333 -28.9 -464.73666 4286409312
281.88 -27.084999 -464.405 4286607714
282.60669 -27.423334 -464.47336 4286146646
283.48499 -27.821251 -464.5625 4286013521
276.82001 -26.07 -464.73001 4287925636
277.45001 -26.163332 -464.66 4287728766
278.62799 -26.303997 -464.46802 4287662460
279.47 -26.436666 -464.48669 4287727741
280.54666 -26.643333 -464.61337 4287069297
281.30801 -26.854 -464.41803 4286541662
273.84003 -25.17 -464.48001 4286808698
274.70001 -25.477499 -464.57001 4287004789
275.54001 -25.743332 -464.67996 4287332205
276.40668 -25.933334 -464.47668 4287726709
270.53 -24.077501 -464.6925 4286809213
271.47998 -24.3225 -464.47003 4286087035
272.33499 -24.615 -464.48499 4286678140
273.29999 -24.98 -464.64999 4287006846
266.88 -23.120001 -464.75 4287730053
267.61667 -23.25 -464.54666 4288124559
268.57501 -23.49 -464.42999 4288385929
269.73999 -23.82 -464.54999 4288386186
270.20999 -23.84 -464.12 4287071091
262.98001 -22.02 -464.98001 4286020720
263.42398 -22.158001 -464.44199 4288057217
264.39169 -22.436668 -464.56168 4287728771
265.30002 -22.686666 -464.61667 4287466117
266.45001 -22.889999 -464.33002 4288123531
259.69669 -21.081667 -464.59836 4286546300
260.43704 -21.275 -464.617 4286612862
261.44666 -21.544443 -464.67664 4286940798
262.40201 -21.84 -464.72598 4287203203
237.75 -20.030001 -464.76001 4280690724
238.25 -20.17 -464.73999 4280427289
254.78 -20.115002 -464.89001 4285953648
255.59666 -20.173334 -464.60001 4286085491
256.3175 -20.3675 -464.70251 4286085749
257.52203 -20.567999 -464.60199 4286151285
258.59113 -20.781113 -464.49225 4286348923
259.32779 -20.946665 -464.42664 4286677630
237.52217 -19.388575 -464.35712 4281149993
238.54924 -19.31077 -464.20389 4280953638
239.12199 -19.148001 -464.198 4281149996
248.75 -19.059999 -464.75 4284241755
249.5 -19.145 -464.75 4284835425
250.4875 -19.207499 -464.655 4284966763
251.61 -19.4 -464.655 4285230188
252.62126 -19.42625 -464.40503 4285757044
253.53572 -19.628572 -464.44858 4286019443
254.28598 -19.860001 -464.57797 4286085232
255.32001 -19.950001 -464.22 4286152058
227.57001 -18.106667 -464.74667 4281413673
228.56166 -18.136667 -464.57248 4281084706
229.38625 -18.272499 -464.26999 4280952606
230.58272 -18.507271 -464.57547 4280689694
231.53647 -18.796469 -464.46414 4280623647
232.33667 -18.925558 -464.72223 4280361501
237.42999 -18.895 -464.10748 4281281836
238.41501 -18.950001 -464.02499 4281413415
239.60667 -18.866667 -464.14001 4281938481
240.13 -18.74 -464.26001 4281873194
244.5 -18.3125 -464.16998 4284504661
245.69499 -18.4725 -464.33249 4284571996
246.5 -18.688334 -464.54001 4284307282
247.5 -18.748333 -464.49667 4284571481
248.45 -18.775999 -464.38599 4284768607
249.42 -18.889999 -464.42001 4285558372
250.03 -18.83 -464.20001 4285165168
218.75 -17.795 -464.17499 4282071599
219.35333 -17.683334 -464.24667 4281874476
220.58125 -17.7425 -464.52502 4280755741
221.5291 -17.496361 -464.44186 4282860350
222.44154 -17.399229 -464.43231 4282203193
223.44272 -17.311821 -464.35635 4282070575
224.41931 -17.488571 -464.49213 4281479723
225.45 -17.703333 -464.69998 4281348139
226.5 -17.856667 -464.56332 4281281574
227.522 -17.896 -464.26801 4281413161
228.17 -17.970001 -464.215 4281543721
274.77002 -50.195 -463.48999 4280623895
275.20001 -50.009998 -463.31 4280033558
275.56 -49.880001 -463.64331 4280294678
276.39999 -49.5075 -463.51749 4280163607
277.255 -49.040001 -463.35498 4280294682
277.63501 -48.904999 -463.535 4280229142
278.41498 -48.669998 -463.345 4280294677
279.57501 -48.450001 -463.565 4280096789
280.57501 -48.16 -463.58502 4279834641
281.07001 -48.060001 -463.79999 4279506456
280.98001 -47.889999 -463.20999 4279900432
281.535 -47.75 -463.40002 4280097557
282.19 -47.619999 -463.76001 4279834381
283.27002 -47.169998 -463.745 4279900179
283.875 -46.82 -463.58502 4279703314
284.6033 -46.360001 -463.43335 4280163858
285.20999 -46.16 -463.67499 4281216021
284.98001 -45.970001 -463.10999 4281608467
285.66498 -45.895 -463.67999 4281019418
286.31 -45.352497 -463.51999 4281478178
287.01999 -45.23 -464 4282135854
286.72 -44.77 -463.17999 4282465846
287.42667 -44.468334 -463.4733 4282465066
288.12 -44.16 -463.73999 4280625954
287.85498 -43.755001 -463.14001 4282006573
288.55334 -43.473331 -463.55334 4281676071
289.01001 -43.450001 -463.95999 4281348395
288.785 -42.419998 -463.16501 4283057726
289.32001 -42.635002 -463.77502 4281939762
289.63498 -41.487499 -463.63501 4284570963
289.67001 -40.450001 -463.37 4287923054
290.14001 -40.450001 -463.88 4285625701
289.63 -39.669998 -463.17001 4284839013
290.20334 -39.546665 -463.75668 4284505938
289.58334 -38.460003 -463.13669 4286672987
290.26001 -38.549999 -463.79001 4287134574
289.72751 -37.522499 -463.39999 4289108353
290.28497 -37.605 -463.935 4287196757
289.67331 -36.393337 -463.53671 4290626217
290.22 -36.939999 -463.95999 4287862652
288.95001 -35.18 -463.25 4287995529
289.54001 -35.673332 -463.61337 4288852657
288.72998 -34.599998 -463.30499 4290818724
289.23001 -34.599998 -463.75 4289311388
288.29498 -33.525002 -463.48499 4292992728
287.59998 -32.494999 -463.48831 4294242533
286.625 -31.485001 -463.3775 4289436048
287.34 -31.67 -463.84 4288845460
285.79001 -30.455 -463.38498 4288252013
286.465 -30.75 -463.785 4287528049
284.71664 -29.220001 -463.53003 4287597433
285.34668 -29.699999 -463.64999 4289833098
282.84 -28.02 -463.07001 4285948242
283.59427 -28.296429 -463.53497 4285620563
284.28201 -28.731998 -463.66595 4286081631
281.71887 -27.145559 -463.36557 4286016864
282.38443 -27.506666 -463.58664 4286015579
283.13333 -27.886665 -463.73331 4285619276
277.71503 -26.065001 -463.55499 4287860096
278.58499 -26.23 -463.29001 4288122758
279.48502 -26.42 -463.30249 4287596667
280.48401 -26.638 -463.48398 4286937710
281.2457 -26.885714 -463.4671 4287002733
273.82999 -25.1 -463.20001 4287530867
274.655 -25.41 -463.46002 4287136115
275.60666 -25.683334 -463.70999 4287331437
276.28998 -25.795 -463.47998 4287792760
277.14999 -25.98 -463.70999 4287861379
270.94 -24.040001 -463.89001 4286349437
271.67499 -24.2675 -463.345 4287137406
272.565 -24.612501 -463.57748 4287071614
273.17999 -24.84 -463.42001 4287072642
267.66 -23.030001 -463.69 4287861387
268.37668 -23.213333 -463.48999 4287597958
269.47 -23.540001 -463.48502 4287532679
270.73001 -23.93 -463.32001 4286941319
263.495 -22.099998 -463.78 4288451196
264.60748 -22.26 -463.4325 4287860607
265.63998 -22.466667 -463.41666 4288123528
266.35999 -22.665001 -463.57001 4288451721
267.33667 -22.896667 -463.46329 4288254858
259.8533 -21.083334 -463.36002 4288715919
260.34247 -21.2425 -463.53 4288847249
261.50668 -21.536667 -463.47 4289045137
262.66998 -21.868 -463.62402 4288781195
263.4325 -21.942499 -463.2475 4287729273
256.375 -20.095001 -463.65997 4287137919
257.55249 -20.387501 -463.43753 4287400582
258.46249 -20.649998 -463.56 4287401606
259.36002 -20.924 -463.534 4288190350
252.632 -19.130001 -463.79999 4286414970
253.45001 -19.235001 -463.51251 4286612604
254.53667 -19.470833 -463.39331 4286743681
255.44002 -19.797144 -463.61426 4286809471
228.741 -18.134998 -463.53998 4280821279
229.452 -18.401501 -463.45001 4280427806
233.4175 -18.805 -463.08252 4280097556
237.62335 -18.294445 -463.87222 4281480755
238.51463 -18.469231 -463.82385 4281741866
239.37187 -18.308125 -463.62503 4283386951
240.16 -18.195 -463.745 4283386695
